# .PCD v0.7 - Point Cloud Data file format
VERSION 0.7
FIELDS x y z intensity
SIZE 4 4 4 4
TYPE F F F F
COUNT 1 1 1 1
WIDTH 1380
HEIGHT 1
VIEWPOINT 0 0 0 1 0 0 0
POINTS 1380
DATA ascii
-12.816421 9.6123514 3.1119895 10
-1.9122756 1.434212 0.37767449 1
-1.8104912 1.3578734 0.2769497 26
-1.8250444 1.3687884 0.19932786 22
-1.82943 1.3720776 0.12119839 25
-1.8157235 1.3617977 0.039434742 22
-1.9348511 1.4606639 -0.65031707 46
-1.8817145 1.4205498 -0.54551739 43
-1.7781751 1.3423855 -0.4347347 34
-1.7969768 1.3565794 -0.35911897 35
-1.7901828 1.3514504 -0.27645433 17
-1.7809422 1.3444746 -0.19553265 21
-1.7772673 1.3417003 -0.11857866 23
-1.7954687 1.3554409 -0.039648771 26
-12.567719 9.4876614 4.2103138 27
-12.684566 9.5758734 3.663404 38
-12.723482 9.6052513 3.0967348 10
-94.599693 71.415497 18.727659 -1
-1.8379045 1.3874766 0.28180847 26
-1.7968827 1.3565084 0.19671658 18
-1.8171406 1.3718015 0.12066913 18
-1.8114363 1.3674953 0.039434742 50
-1.937943 1.4725788 -0.65290797 35
-1.8772423 1.4264543 -0.54551739 50
-1.7817639 1.3539034 -0.43664983 26
-1.7927061 1.3622181 -0.35911897 47
-1.778026 1.3510631 -0.27523109 20
-1.768778 1.3440359 -0.19465974 21
-1.7730435 1.3472772 -0.11857866 28
-1.7912016 1.3610748 -0.039648771 26
-12.499391 9.4978733 4.1973987 28
-12.592351 9.568511 3.6454351 26
-12.638531 9.6036015 3.0833867 9
-1.9189556 1.4581509 0.38079575 5
-1.8493428 1.4052544 0.28423786 15
-1.8005441 1.368174 0.197587 34
-1.8287239 1.3895868 0.12172763 32
-1.7912095 1.3610808 0.039087299 15
-1.8949479 1.4493213 -0.63995343 60
-1.8650131 1.4264261 -0.54326314 28
-1.7697057 1.3535316 -0.4347347 24
-1.7805738 1.3618441 -0.35754389 24
-1.7816561 1.3626717 -0.27645433 20
-1.7724595 1.3556379 -0.19553265 15
-1.7688022 1.3528407 -0.11857866 22
-1.778975 1.3606211 -0.039472554 23
-12.408102 9.4901419 4.1767344 31
-12.508048 9.5665846 3.6297123 27
-12.538122 9.5895863 3.0662251 9
-1.9300568 1.4761736 0.38391703 30
-1.8922246 1.4472383 0.29152602 13
-1.80415 1.3798759 0.19845743 10
-1.8084854 1.3831917 0.12066913 18
-1.7948666 1.3727756 0.039261021 27
-1.9059482 1.4667181 -0.64513522 34
-1.8530515 1.4260117 -0.54100895 49
-1.7734601 1.3647623 -0.43664983 18
-1.7765254 1.3671211 -0.35754389 37
-1.7697396 1.3618991 -0.27523109 21
-1.7684295 1.3608909 -0.19553265 26
-1.7568667 1.3519927 -0.11804692 15
-1.7987015 1.3841866 -0.040001206 31
-12.326297 9.4856739 4.1586533 32
-12.42555 9.5620537 3.6139896 29
-12.470716 9.5968113 3.0566907 10
-1.9100125 1.4698458 0.38079575 34
-1.8957886 1.4588999 0.2927407 9
-1.792153 1.3791473 0.197587 12
-1.8202013 1.4007318 0.12172763 17
-1.7828617 1.3719972 0.039087299 19
-1.8863142 1.4605405 -0.63995343 61
-1.8565158 1.4374681 -0.54326314 25
-1.769403 1.3700182 -0.43664983 30
-1.7724612 1.3723861 -0.35754389 12
-1.7578435 1.3610679 -0.27400786 20
-1.7565072 1.3600332 -0.19465974 20
-1.7607433 1.3633131 -0.11857866 24
-1.7945867 1.3895174 -0.040001206 10
-12.252267 9.4867182 4.1431551 29
-12.350895 9.5630846 3.600513 32
-12.395616 9.5977116 3.0452497 8
-1.897833 1.4694593 0.37923512 22
-1.8679066 1.4462878 0.28909662 16
-1.7959299 1.3905575 0.19845743 12
-1.8160373 1.4061263 0.12172763 20
-1.7945945 1.3895235 0.039434742 17
-1.8890777 1.4727261 -0.64254433 30
-1.8517387 1.4436166 -0.54326314 67
-1.749369 1.3638091 -0.43281958 23
-1.7756885 1.3843279 -0.35911897 44
-1.7454931 1.3607874 -0.27278459 19
-1.7598439 1.3719753 -0.19553265 14
-1.7483373 1.3630047 -0.11804692 17
-1.789969 1.3954608 -0.040001206 33
-12.235978 9.539176 4.1483212 30
-12.29606 9.5860157 3.5937746 22
-12.332753 9.6146221 3.0376222 7
-1.8929497 1.4757447 0.37923512 14
-1.8317876 1.4280627 0.28423786 7
-1.8148787 1.4148805 0.20106871 14
-1.8034889 1.406001 0.12119839 17
-1.7899768 1.3954669 0.039434742 14
-1.8616461 1.4607666 -0.63477165 60
-1.831865 1.4373984 -0.53875476 22
-1.7527974 1.375357 -0.4347347 28
-1.7635618 1.3838035 -0.35754389 19
-1.7490176 1.3723911 -0.27400786 18
-1.755525 1.3774973 -0.19553265 26
-1.7519027 1.3746549 -0.11857866 19
-1.7934421 1.4072495 -0.040177424 18
-12.22875 9.5954599 4.1560702 23
-12.296549 9.6486588 3.6027591 37
-12.325656 9.6714983 3.0433428 8
-1.8805333 1.4755868 0.37767449 8
-93.707291 73.52874 14.576301 -1
-1.8182621 1.4267248 0.20193914 3
-1.7990628 1.4116598 0.12119839 20
-1.79345 1.4072556 0.039608464 26
-1.8646275 1.472594 -0.63736254 32
-1.834986 1.4491845 -0.54100895 44
-1.7407655 1.3747737 -0.43281958 25
-1.7669556 1.3954574 -0.35911897 30
-1.7446975 1.377879 -0.27400786 16
-1.743371 1.3768315 -0.19465974 21
-1.7554121 1.386341 -0.11911041 20
-1.7811657 1.40668 -0.040001206 14
-12.213708 9.6458054 4.1612363 31
-12.289118 9.7053604 3.6094973 20
-12.326026 9.7345085 3.0509701 7
-1.8681368 1.4753655 0.37611383 9
-1.8071994 1.4272401 0.28180847 11
-1.8294069 1.4447784 0.20367999 25
-1.7867824 1.4111158 0.12066913 21
-1.7890201 1.4128829 0.039608464 15
-1.8373092 1.4604149 -0.6295898 65
-1.8304242 1.4549422 -0.54100895 22
-1.7364379 1.3802357 -0.43281958 22
-1.7471019 1.3887122 -0.3559688 32
-1.7481296 1.389529 -0.27523109 17
-1.7468354 1.3885003 -0.19553265 17
-1.7666825 1.4042761 -0.12017389 18
-1.7923918 1.4247116 -0.040353637 26
-12.145532 9.6540718 4.1483212 39
-12.24331 9.7317924 3.6050053 56
-12.287699 9.7670755 3.0490632 18
-1.8480279 1.4689348 0.37299258 9
-1.8027067 1.4329106 0.28180847 12
-1.8170605 1.4443198 0.20280956 15
-1.7745231 1.4105084 0.12013988 15
-1.7767456 1.4122748 0.039434742 13
-1.8553382 1.4842807 -0.63736254 30
-1.8182366 1.4545993 -0.53875476 56
-1.7320932 1.385684 -0.43281958 22
-1.7504417 1.400363 -0.35754389 24
-1.7360055 1.388814 -0.27400786 18
-1.7424647 1.3939813 -0.19553265 16
-1.7700597 1.4160575 -0.12070564 15
-1.7644848 1.4115975 -0.039824989 14
-12.054792 9.6439009 4.1276574 38
-91.309731 73.048286 26.95331 -1
-91.98465 73.588219 22.882277 -1
-1.835691 1.4685628 0.37143192 17
-1.7826945 1.4261653 0.2793791 10
-1.7969559 1.4375746 0.20106871 6
-1.7778809 1.4223145 0.12066913 14
-1.7801075 1.4240957 0.039608464 19
-1.8130509 1.4598155 -0.62440801 98
-1.8212464 1.4664143 -0.54100895 21
-1.7277315 1.3911188 -0.43281958 23
-1.7383419 1.399662 -0.3559688 18
-1.7316339 1.394261 -0.27400786 17
-1.745836 1.405696 -0.19640556 17
-1.7656024 1.4216113 -0.12070564 15
-1.7678292 1.4234043 -0.040001206 12
-11.979288 9.6453724 4.1121593 40
-12.235052 9.851306 3.620728 125
-12.279611 9.8871832 3.0624113 92
-1.8156812 1.4619334 0.36831066 45
-1.7859366 1.4379839 0.28059378 8
-1.7924308 1.4432129 0.20106871 12
-1.7656257 1.4216301 0.12013988 12
-1.7756248 1.4296811 0.039608464 26
-1.8384717 1.4898279 -0.63477165 30
-1.801492 1.4598609 -0.53650057 62
-1.730978 1.4027191 -0.4347347 21
-1.7339362 1.4051162 -0.3559688 23
-1.7349561 1.4059428 -0.27523109 12
-1.7491509 1.4174457 -0.19727847 17
-1.7688857 1.4334381 -0.12123738 12
-1.7555807 1.4226562 -0.039824989 9
-11.888883 9.6343002 4.091495 37
-12.037487 9.7547235 3.5713136 142
-12.073074 9.7835627 3.0185535 194
-1.8110794 1.4676303 0.36831066 95
-1.789122 1.4498367 0.28180847 11
-1.7878879 1.4488368 0.20106871 11
-1.7611508 1.42717 0.12013988 30
-1.7555883 1.4226624 0.039261021 28
0.1 0.1 0.1 -1
-1.8044468 1.4716709 -0.53875476 17
-1.7265627 1.4081502 -0.4347347 19
-1.7295133 1.4105567 -0.3559688 19
-1.7459131 1.4239321 -0.2776776 17
-1.7446892 1.4229338 -0.19727847 10
-1.7721123 1.4452995 -0.12176912 11
-1.7588508 1.4344838 -0.040001206 24
-11.843584 9.6593914 4.086329 99
-20.298258 16.554855 6.0375414 142
-11.989028 9.7780132 3.0052056 214
-91.853889 74.9142 18.727659 -1
-1.7845583 1.4554503 0.28180847 12
-1.7601674 1.4355575 0.19845743 11
-1.7411814 1.4200729 0.11908138 21
-1.7433619 1.4218513 0.039087299 51
-1.8365401 1.5074778 -0.63736254 29
-1.7922839 1.4711511 -0.53650057 58
-1.7221304 1.4135674 -0.4347347 28
-1.7250733 1.4159831 -0.3559688 14
-1.7337596 1.423113 -0.27645433 14
-1.7402104 1.4284079 -0.19727847 14
-1.7598443 1.4445239 -0.12123738 10
-1.7466073 1.4336586 -0.039824989 17
-11.798245 9.6842928 4.0811629 200
-11.893106 9.7621574 3.5466063 200
-11.9279 9.7907162 2.9975781 173
-91.618088 75.2024 18.727659 -1
-1.802994 1.4799423 0.28545254 11
-1.7556487 1.4410801 0.19845743 10
-1.7367115 1.4255359 0.11908138 19
-1.7466149 1.4336649 0.039261021 11
0.1 0.1 0.1 -1
-1.7801422 1.4705696 -0.53424633 16
-1.7101141 1.4127196 -0.43281958 21
-1.7282298 1.4276849 -0.35754389 49
-1.7292802 1.4285527 -0.27645433 16
-1.7664349 1.459246 -0.20077012 14
-1.7475989 1.4436857 -0.12070564 7
-1.7343863 1.4327708 -0.039648771 22
-89.375412 73.832733 30.996174 -1
-90.151077 74.473503 26.95331 -1
-11.821402 9.7656212 2.9785097 170
-91.381378 75.489853 18.727659 -1
-1.8212932 1.5045644 0.28909662 10
-1.7587931 1.4529332 0.19932786 16
-1.7399232 1.4373449 0.11961063 26
-92.501007 76.41478 2.084656 -1
-1.8047513 1.500463 -0.6295898 29
-1.7680218 1.4699262 -0.53199214 49
-1.7207619 1.4306346 -0.43664983 32
-1.723736 1.4331073 -0.35754389 17
-1.7247838 1.4339783 -0.27645433 15
-1.769502 1.471157 -0.20164305 9
-1.7507335 1.4555528 -0.12123738 13
-1.7144998 1.4254284 -0.039296336 6
-89.143021 74.113152 30.996174 -1
-11.719138 9.7432451 3.5129147 228
-11.760469 9.7776079 2.9708822 194
-11.818309 9.825695 2.4283533 228
-1.8318228 1.5229701 0.29152602 28
-1.7465596 1.4520826 0.19845743 9
-1.7277204 1.4364198 0.11908138 18
-1.7298841 1.4382187 0.039087299 13
-1.792621 1.4999274 -0.6269989 81
-1.7783393 1.4879774 -0.53650057 18
-1.7087315 1.4297351 -0.4347347 19
-1.7116517 1.4321784 -0.3559688 28
-1.7202703 1.4393898 -0.27645433 17
-1.7725117 1.4831014 -0.20251596 23
-1.730835 1.4482296 -0.12017389 13
-1.7176815 1.4372238 -0.039472554 6
-88.909744 74.392838 30.996174 -1
-11.651104 9.7487478 3.5016842 226
-11.676993 9.7704096 2.9575343 199
-11.711628 9.7993889 2.4127469 226
-91.351456 76.435875 14.576301 -1
-1.7267085 1.4447769 0.19671658 22
-1.7308578 1.4482487 0.11961063 17
-1.7406938 1.4564786 0.039434742 50
-1.7879001 1.5055517 -0.6269989 34
-1.7587512 1.481006 -0.53199214 49
-1.7267543 1.4540621 -0.44048011 30
-1.7146976 1.4439094 -0.35754389 18
-1.7309234 1.4575728 -0.27890083 18
-1.7754636 1.4950792 -0.20338887 11
-1.7109998 1.4407957 -0.11911041 10
-1.7208059 1.4490532 -0.039648771 22
-88.675598 74.671783 30.996174 -1
-11.553336 9.7288122 3.4814692 181
-11.601189 9.7691078 2.9460931 173
-11.658118 9.8170471 2.4080651 225
-91.110878 76.722481 14.576301 -1
-1.7297813 1.4566112 0.197587 68
-1.7262995 1.4536792 0.11961063 16
-1.7284615 1.4554998 0.039261021 33
-1.7684245 1.4986721 -0.62181711 58
-1.7540897 1.486524 -0.53199214 29
-1.7221777 1.4594797 -0.44048011 15
-1.7252204 1.4620583 -0.36069405 24
-1.7263358 1.4630035 -0.27890083 22
-1.7707579 1.5006496 -0.20338887 27
-1.7217014 1.459076 -0.12017389 11
-1.7315006 1.4673805 -0.040001206 7
-88.440575 74.949997 30.996174 -1
-11.485545 9.7335606 3.4702387 183
-11.525507 9.7674255 2.9346519 155
-90.425552 76.632195 18.727659 -1
-11.608565 9.8378153 1.8621224 161
-1.7175968 1.4555975 0.19671658 118
-1.7293425 1.4655515 0.12013988 17
-1.739136 1.4738512 0.039608464 29
-1.7710564 1.510488 -0.62440801 31
-1.7568238 1.4983494 -0.53424633 59
-1.7250519 1.471252 -0.44239524 22
-1.7281324 1.4738791 -0.36226913 9
-1.7368339 1.4813006 -0.28134733 19
-1.7584553 1.4997408 -0.20251596 20
-1.7475003 1.4903976 -0.12230087 25
-1.742097 1.4857893 -0.040353637 21
-11.297548 9.6353855 3.9700933 75
-11.36594 9.6937141 3.4432852 1
-11.405137 9.7271452 2.9117696 66
-11.460929 9.7747288 2.3799734 156
-11.494527 9.8033838 1.8487607 80
-1.7205951 1.4674509 0.197587 123
-1.7323277 1.4774573 0.12066913 15
-1.7344972 1.4793075 0.039608464 26
-1.7443151 1.4971725 -0.61663526 62
-1.7373222 1.4911704 -0.52973795 26
-1.7129736 1.4702716 -0.44048011 18
-1.7234935 1.479301 -0.36226913 24
-1.7622966 1.5126061 -0.28624034 11
-1.7612942 1.5117459 -0.20338887 24
-1.750387 1.5023841 -0.12283261 11
-1.7222466 1.4782308 -0.040001206 22
-11.230569 9.63937 3.9571784 40
-11.291064 9.6912937 3.4298086 23
-11.307482 9.7053852 2.894608 1
-11.347717 9.7399206 2.3628066 1
-11.343161 9.7360096 1.8293257 1
-1.7159765 1.472849 0.197587 64
-1.7276776 1.4828922 0.12066913 12
-1.7298412 1.4847493 0.039608464 20
-1.7615308 1.5215859 -0.62440801 29
-1.7400019 1.5029896 -0.53199214 44
-1.7157738 1.4820616 -0.44239524 17
-1.7337841 1.4976187 -0.3654193 12
-1.7650467 1.5246229 -0.28746358 8
-1.7565362 1.5172718 -0.20338887 4
-1.7456584 1.5078756 -0.12283261 12
-1.7402936 1.5032417 -0.040529855 6
-87.73027 75.78019 30.996174 -1
-88.491653 76.437866 26.95331 -1
-89.145737 77.002853 22.882277 -1
-11.317062 9.7755222 2.3628066 8
-11.350077 9.804039 1.8353992 25
-1.7188798 1.4847447 0.19845743 13
-1.7381245 1.5013679 0.12172763 16
-1.7327347 1.4967123 0.039782185 12
-1.7421632 1.5144393 -0.61922622 79
-1.7426244 1.5148402 -0.53424633 26
-1.7037019 1.4810054 -0.44048011 16
-1.7290705 1.5030581 -0.3654193 31
-1.7527578 1.5236491 -0.28624034 9
-1.7667975 1.5358536 -0.2051347 17
-1.7559855 1.5264549 -0.1238961 7
-1.7506543 1.5218207 -0.040882289 15
-87.49176 76.055428 30.996174 -1
-88.251076 76.715492 26.95331 -1
-88.903381 77.282532 22.882277 -1
-89.455452 77.762436 18.727659 -1
-89.894531 78.144127 14.576301 -1
-1.7367623 1.5097444 0.20106871 23
-1.7333993 1.5068209 0.12172763 11
-1.7355701 1.508708 0.039955907 17
-1.7373968 1.519905 -0.61922622 27
-1.7231914 1.5074778 -0.52973795 51
-1.6990408 1.4863504 -0.44048011 17
-1.7169075 1.5019807 -0.36384422 10
-1.7404926 1.5226132 -0.28501707 14
-1.7619637 1.5413966 -0.2051347 32
-1.7586972 1.5385389 -0.12442784 9
-1.7308142 1.5141464 -0.040529855 6
-87.252396 76.329918 30.996174 -1
-11.125884 9.7331181 3.4073474 219
-11.156403 9.7598152 2.879353 164
-11.210813 9.807415 2.3534427 187
-11.228486 9.822875 1.8256816 135
-1.7320107 1.5151931 0.20106871 75
-1.7361728 1.5188342 0.12225688 14
-1.7308217 1.514153 0.039955907 8
-1.7181145 1.5125912 -0.61404437 74
-1.7257595 1.5193217 -0.53199214 19
-1.6943629 1.4916809 -0.44048011 17
-1.7195925 1.5138924 -0.3654193 50
-1.7133524 1.5083989 -0.28134733 9
-1.7346814 1.5271764 -0.20251596 16
-1.7463599 1.5374579 -0.1238961 21
-1.7335534 1.5261834 -0.040706072 7
-87.012169 76.603653 30.996174 -1
-11.065996 9.7422667 3.3983631 226
-11.096214 9.7688694 2.8717256 181
-11.150291 9.8164787 2.3472002 226
-11.175221 9.8384256 1.8220376 158
-1.7421966 1.5337925 0.20280956 133
-1.7313926 1.524281 0.12225688 17
-1.733561 1.52619 0.040129628 22
-1.7278128 1.5307913 -0.61922622 32
-1.7209779 1.5247358 -0.53199214 48
-1.6896683 1.4969964 -0.44048011 17
-1.6926535 1.4996413 -0.36069405 7
-1.7160339 1.5203557 -0.2825706 10
-1.7224188 1.5260124 -0.20164305 7
-1.7265725 1.5296925 -0.12283261 11
-1.7212665 1.5249915 -0.040529855 17
-86.77108 76.876633 30.996174 -1
-10.991573 9.7382116 3.3848865 226
-11.028732 9.7711325 2.8621914 197
-11.060251 9.799058 2.3347149 228
-11.092251 9.8274088 1.8135347 131
-1.7373694 1.5392582 0.20280956 131
-1.7265954 1.5297128 0.12225688 15
-1.721274 1.5249982 0.039955907 27
-1.722995 1.5362118 -0.61922622 66
-1.7089074 1.5236514 -0.52973795 31
-1.684957 1.5022973 -0.44048011 16
-1.7174175 1.5312388 -0.36699438 63
-1.7112491 1.5257392 -0.2825706 8
-1.7250516 1.5380455 -0.20251596 9
-1.7217584 1.5351092 -0.12283261 11
-1.7090042 1.5237377 -0.040353637 9
-86.529137 77.148849 30.996174 -1
-10.910012 9.7272997 3.3691638 227
-10.961346 9.7730684 2.8526571 214
-88.471222 78.880402 18.727659 -1
-11.024279 9.8291788 1.8074613 138
-1.7325251 1.5447087 0.20280956 223
-1.7217813 1.5351295 0.12225688 15
-1.7164745 1.5303981 0.039955907 20
-1.7397273 1.560968 -0.6269989 31
-1.7186153 1.5420253 -0.53424633 75
-1.6948397 1.5206927 -0.44431037 19
-1.6831976 1.5102469 -0.36069405 10
-1.6990602 1.5244796 -0.28134733 9
-1.7053819 1.5301516 -0.20077012 8
-1.7094946 1.5338418 -0.12230087 7
-1.7042087 1.5290991 -0.040353637 11
-86.286346 77.420311 30.996174 -1
-10.828629 9.7159729 3.353441 225
-10.872136 9.7550097 2.8374023 197
-88.222977 79.157951 18.727659 -1
-10.941629 9.8173618 1.7989584 133
-10.610673 9.5204124 1.2455815 170
-1.7169499 1.540531 0.12225688 15
-1.7116582 1.5357831 0.039955907 17
-1.7276461 1.559953 -0.62440801 96
-1.7137624 1.5474169 -0.53424633 16
-1.6900541 1.5260097 -0.44431037 22
-1.6931037 1.5287634 -0.36384422 45
-1.6868962 1.5231584 -0.2801241 9
-1.6931726 1.5288256 -0.19989721 10
-1.712079 1.545897 -0.12283261 9
-1.6993966 1.5344454 -0.040353637 6
-86.042694 77.691002 30.996174 -1
-10.776355 9.7303524 3.3467026 206
-10.797721 9.7496452 2.8259611 214
-10.850109 9.7969484 2.3097448 227
-10.873898 9.818428 1.7928849 137
-10.52156 9.5002899 1.238618 1
-1.7121018 1.5459174 0.12225688 16
-1.706825 1.5411528 0.039955907 15
-1.7516078 1.5910485 -0.63477165 40
-1.7163754 1.5590456 -0.53650057 76
-1.692784 1.5376167 -0.44622549 23
-1.6885602 1.5337802 -0.36384422 10
-1.6897161 1.53483 -0.28134733 9
-1.696003 1.5405406 -0.20077012 11
-1.700093 1.5442559 -0.12230087 8
-1.6874353 1.5327582 -0.040177424 7
-85.811806 77.945953 30.996174 -1
-10.711371 9.7295246 3.3354721 219
-10.732413 9.7486382 2.8164268 163
-87.737785 79.695396 18.727659 -1
-10.807981 9.8172789 1.7868115 143
-10.456455 9.4979753 1.2342659 146
-1.7075074 1.5509906 0.12225688 19
-1.7022448 1.5462103 0.039955907 16
-2.3671997 2.1630661 -0.86018032 27
-1.7333186 1.5838472 -0.54326314 67
-1.6954598 1.5492532 -0.44814062 29
-1.6985822 1.5521063 -0.36699438 42
-1.677828 1.5331419 -0.2801241 9
-1.6840706 1.5388461 -0.19989721 8
-1.6881319 1.5425572 -0.12176912 8
-1.6902611 1.5445029 -0.040353637 7
-85.580154 78.200218 30.996174 -1
-10.639295 9.7218237 3.3219955 188
-10.659961 9.7407074 2.8049858 168
-10.718865 9.7945318 2.2941384 223
-10.742167 9.8158245 1.780738 147
-10.384103 9.4886379 1.2290434 129
-1.7102699 1.5627861 0.12278613 19
-1.6976496 1.5512542 0.039955907 25
-2.3671222 2.177443 -0.86277121 1
-2.3447077 2.1568246 -0.73712468 1
0.1 0.1 0.1 -1
-1.671622 1.5376738 -0.36226913 21
-1.6800392 1.5454165 -0.28134733 9
-1.6789583 1.5444223 -0.19989721 10
-1.6830074 1.5481468 -0.12176912 8
-1.6851301 1.5500994 -0.040353637 7
-85.320366 78.483582 30.996174 -1
-10.556795 9.7108717 3.3062727 206
-10.591477 9.742775 2.7954514 175
-10.642709 9.7899008 2.2847745 227
-10.673031 9.8177938 1.7746645 148
-10.315921 9.4892988 1.2246913 127
-1.7124276 1.5752095 0.12331539 28
-1.6998547 1.5636443 0.040129628 12
0.1 0.1 0.1 -1
-2.3665187 2.1906533 -0.74614149 5
-3.1835711 2.9469872 -0.84648788 7
-1.6812768 1.5563345 -0.3654193 19
-1.6751758 1.5506868 -0.28134733 9
-1.688719 1.5632236 -0.20164305 9
-1.6854635 1.56021 -0.12230087 9
-1.6729146 1.5485936 -0.040177424 8
-85.07338 78.751236 30.996174 -1
-10.49048 9.7108917 3.295042 191
-10.524798 9.7426586 2.785917 206
-86.982788 80.518753 18.727659 -1
-10.59843 9.8108187 1.7673764 163
-10.249506 9.4878244 1.2203391 127
-1.7147987 1.5873652 0.12384464 23
-1.7022715 1.5757688 0.040303349 47
-2.3392599 2.1791062 -0.85758942 24
-2.3524961 2.1914363 -0.74388731 12
-3.2317505 3.010494 -0.8618089 10
-1.683605 1.5683397 -0.36699438 5
-1.670296 1.5559419 -0.28134733 10
-1.6692214 1.5549409 -0.19989721 9
-1.6805537 1.5654973 -0.12230087 10
-1.6680413 1.5538416 -0.040177424 7
-10.327512 9.6204557 3.7737842 63
-10.3601 9.6508121 3.2635965 1
-10.415128 9.7020731 2.7649417 1
-10.450893 9.7353897 2.2566831 141
-10.487664 9.7696438 1.7540148 1
-10.175912 9.4792356 1.2151165 126
-1.7024965 1.5859379 0.12331539 38
-1.7046286 1.587924 0.040477071 66
-2.3253558 2.1798389 -0.85499853 11
-2.3455999 2.1988161 -0.74388731 15
-3.2151163 3.0139196 -0.8598938 6
-1.6714649 1.5668675 -0.3654193 6
-1.6726404 1.5679693 -0.2825706 11
-1.6715959 1.5669903 -0.20077012 10
-1.6756272 1.5707692 -0.12230087 9
-1.6631516 1.5590743 -0.040177424 9
-10.2479 9.6066036 3.7557032 41
-10.308402 9.6633186 3.2568583 14
-10.334463 9.6877499 2.7515938 10
-10.348194 9.7006216 2.2410767 1
-10.41347 9.7618122 1.7467266 1
-10.109742 9.4770908 1.2107644 20
-87.425186 81.954262 6.351007 -1
-1.692337 1.5864334 0.040303349 82
-2.3114705 2.1805058 -0.85240757 22
-2.3386805 2.2061741 -0.74388731 10
-3.1984923 3.0172701 -0.85797864 6
-1.6737176 1.5788871 -0.36699438 8
-1.6677063 1.5732163 -0.2825706 13
-1.6739112 1.5790697 -0.20164305 13
-1.6706842 1.5760256 -0.12230087 8
-1.6655184 1.5711524 -0.040353637 13
-84.3274 79.549522 30.996174 -1
-85.05925 80.239914 26.95331 -1
-85.687965 80.833 22.882277 -1
-10.332038 9.7466393 2.2441978 8
-86.643265 81.734177 14.576301 -1
-10.043687 9.4746256 1.2064123 3
-3.3050931 3.117831 0.24080901 7
-1.6873448 1.5917422 0.040303349 11
-2.3046088 2.1877568 -0.85240757 12
-2.3317382 2.2135105 -0.74388731 16
-3.1889975 3.0273037 -0.85797864 6
-1.6759112 1.5909363 -0.36856946 5
-1.6699537 1.5852809 -0.28379384 14
-1.676167 1.5911793 -0.20251596 18
-1.6657248 1.5812664 -0.12230087 8
-1.6605743 1.576377 -0.040353637 10
-84.077072 79.814056 30.996174 -1
-84.806747 80.506737 26.95331 -1
-85.433594 81.101799 22.882277 -1
-85.964119 81.605423 18.727659 -1
-86.386063 82.005974 14.576301 -1
-9.977747 9.471838 1.2020601 11
-3.2880394 3.1213238 0.24027976 6
-1.6968387 1.6108028 0.040650792 13
-2.3047085 2.2016578 -0.85499853 22
-2.3247728 2.220825 -0.74388731 13
-3.1723742 3.0305276 -0.85606349 8
-1.7066079 1.6303002 -0.37644488 3
-1.6721418 1.5973752 -0.28501707 16
-1.67116 1.5964372 -0.20251596 10
-1.6679695 1.5933894 -0.12283261 9
-1.6628435 1.5884926 -0.040529855 12
-83.825912 80.077797 30.996174 -1
-10.146409 9.6927319 3.2343972 225
-10.157522 9.7033482 2.7287114 157
-10.220598 9.7636042 2.2332735 157
-86.128006 82.276955 14.576301 -1
-9.9119234 9.4687309 1.197708 46
-3.2782173 3.1316381 0.24027976 6
-1.6989998 1.6230321 0.040824514 5
-2.3047433 2.2155809 -0.85758942 16
-2.3177843 2.2281175 -0.74388731 24
-3.162838 3.0404789 -0.85606349 10
-1.7228352 1.6561848 -0.38117012 17
0.1 0.1 0.1 -1
-1.6804996 1.615487 -0.20426178 18
-1.6701545 1.6055421 -0.12336435 12
-1.6578449 1.5937088 -0.040529855 10
-83.573929 80.340744 30.996174 -1
-10.094834 9.7043009 3.2276587 225
-10.091604 9.7011957 2.7191772 1
-10.154271 9.7614374 2.2254703 226
-10.196956 9.8024721 1.7309357 151
-9.8462191 9.4653034 1.1933558 131
-3.2611637 3.1350009 0.23975052 6
-1.7155166 1.6491493 0.041345678 15
-2.3116553 2.2362413 -0.86277121 13
-2.3317802 2.2557096 -0.75064993 22
-3.1109445 3.0094552 -0.84457272 6
-1.7105261 1.654723 -0.37959504 6
-3.1886106 3.0845876 -0.54679245 1
-1.6754161 1.6207584 -0.20426178 36
-1.6651022 1.6107811 -0.12336435 17
-1.6600162 1.6058609 -0.040706072 12
-83.321121 80.602905 30.996174 -1
-10.022275 9.6953154 3.2141821 197
-10.0258 9.6987247 2.7096429 13
-10.095157 9.7658195 2.2192278 104
-10.123305 9.7930498 1.7236475 140
-9.7663136 9.4477043 1.1872629 121
-3.2369442 3.1313443 0.23869202 4
-3.1691356 3.065748 0.076611109 1
-2.6921821 2.6207767 -1.0078619 33
-2.324682 2.2630241 -0.75064993 12
-3.1014748 3.0192137 -0.84457272 7
-1.6911671 1.6463119 -0.37644488 16
-3.2357976 3.1499739 -0.55657846 6
-1.6845922 1.6399115 -0.20600761 16
-1.667189 1.6229697 -0.1238961 23
-1.6764561 1.631991 -0.041234724 17
-83.06749 80.864265 30.996174 -1
-9.9638376 9.699564 3.2051978 191
-9.946043 9.6822424 2.6962948 14
-84.931877 82.679207 18.727659 -1
-10.056928 9.7901859 1.717574 141
-9.7080317 9.4505434 1.1837811 125
-3.2414017 3.1554294 0.23975052 6
-3.2024748 3.1175349 0.077653438 12
-2.7386637 2.6837709 -1.0285891 12
-2.3241234 2.2775395 -0.75290412 30
-3.0914457 3.0294819 -0.84457272 6
-1.6856985 1.651911 -0.37644488 3
-3.2253342 3.1606867 -0.55657846 5
-3.4579 3.3885913 -0.42423603 1
-1.6689301 1.6354786 -0.12442784 17
-1.6710349 1.6375414 -0.041234724 42
-82.798874 81.139282 30.996174 -1
-9.8968191 9.698451 3.1939671 210
-9.8858366 9.6876888 2.6886675 11
-84.657234 82.960396 18.727659 -1
-9.9960499 9.7956924 1.7127153 146
-9.6481791 9.4547949 1.1802994 128
-3.2237878 3.1591716 0.23922126 6
-3.1706955 3.1071434 0.077132277 7
-2.743973 2.705925 -1.0337709 21
-2.3308308 2.2985113 -0.75741255 6
-3.0609477 3.0185044 -0.83882731 7
-1.6875319 1.6641325 -0.37801996 18
-3.2083218 3.163835 -0.55535519 5
-3.5039821 3.4553957 -0.43121934 4
-3.7399583 3.6880999 -0.27969676 7
-3.7375562 3.6857312 -0.0925138 1
-82.543556 81.399002 30.996174 -1
-9.8246717 9.6884422 3.1804905 206
-9.8134155 9.6773415 2.6772263 12
-9.9095192 9.7721128 2.1989393 64
-9.9298887 9.7922001 1.7066418 141
-9.5758686 9.4430895 1.1750768 162
-3.2067368 3.162272 0.23869202 5
-3.1609185 3.117089 0.077132277 7
-2.7222183 2.7004502 -1.0285891 10
-2.3309174 2.3122783 -0.75966674 16
-3.0101702 2.9860995 -0.82733655 8
-1.6615546 1.648268 -0.37329471 4
-3.1989205 3.1733403 -0.55535519 5
-3.5220034 3.49384 -0.43471098 9
-3.7502673 3.7202783 -0.28129199 3
-3.7762921 3.7460952 -0.093747318 4
-82.301682 81.643555 30.996174 -1
-9.7682104 9.6900988 3.1715062 219
-9.7567825 9.6787624 2.6695988 17
-9.8454189 9.7666903 2.1911361 67
-9.8726034 9.7936573 1.7017831 153
-9.5195189 9.4433966 1.1715952 131
-3.1902506 3.1647401 0.23816276 7
-3.8756852 3.8446934 0.094851851 13
-2.7141941 2.7085154 -1.0285891 23
-2.3309426 2.326066 -0.76192093 9
-2.9526649 2.9464872 -0.81393063 9
-1.6636468 1.6601661 -0.37486979 34
-3.1894908 3.1828177 -0.55535519 6
-3.5398273 3.5324214 -0.43820262 7
-3.7321439 3.7243354 -0.28076026 3
-3.772238 3.7643456 -0.093923531 4
-82.059074 81.88739 30.996174 -1
-9.7325182 9.7121563 3.16926 219
-9.6932793 9.6729984 2.6600647 18
-16.612366 16.577608 3.7080767 73
-9.8153973 9.7948618 1.6969243 151
-9.4561996 9.4364157 1.167243 75
-3.9089072 3.9007289 0.29267558 13
-3.8713381 3.8632386 0.095025569 7
-2.7120113 2.7243462 -1.03118 16
-2.3300898 2.3406875 -0.76417518 19
-2.929029 2.9423506 -0.81010038 7
-2.9748845 2.988415 -0.67256051 1
-3.1299045 3.14414 -0.54679245 9
-3.5843186 3.6006207 -0.44518593 5
-3.7268181 3.7437685 -0.28129199 5
-3.8161654 3.8335221 -0.095333271 6
-81.787079 82.159058 30.996174 -1
-9.6383858 9.6822224 3.149045 225
-9.6334467 9.6772614 2.6524372 18
-83.622726 84.003059 18.727659 -1
-9.7478485 9.7921839 1.6908509 150
-9.4037704 9.4465408 1.1646317 139
-3.9241309 3.9419785 0.29479256 6
-3.8796678 3.8973131 0.095546737 7
-2.6966467 2.7259862 -1.0285891 13
0.1 0.1 0.1 -1
-2.9059658 2.9375827 -0.80627012 8
-3.0210409 3.05391 -0.68516117 11
-3.0083332 3.041064 -0.52722043 6
-3.6010127 3.6401918 -0.4486776 7
-3.7361066 3.7767556 -0.28288722 6
-3.8322299 3.8739245 -0.096038133 3
-81.528564 82.415596 30.996174 -1
-9.5805082 9.6847448 3.1400607 226
-9.5615749 9.6656055 2.640996 15
-83.358414 84.26535 18.727659 -1
-9.6821346 9.7874765 1.6847774 159
-9.3390169 9.4406252 1.1602796 128
-3.9257731 3.9684856 0.29585108 7
-3.8744364 3.9165905 0.095720455 7
-2.6880696 2.7344446 -1.0285891 24
0.1 0.1 0.1 -1
-2.8967228 2.9466975 -0.80627012 9
-3.0114319 3.0633857 -0.68516117 8
-2.991807 3.0434222 -0.52599722 6
-3.5965426 3.6585908 -0.44955051 5
-3.7592254 3.8240802 -0.28554595 8
-3.8480775 3.9144654 -0.096743003 5
-81.269249 82.671318 30.996174 -1
-16.169481 16.448441 5.3165402 203
-9.5036354 9.667594 2.6333687 15
-83.093277 84.526817 18.727659 -1
-9.6235046 9.7895317 1.6799186 173
-9.274394 9.4343977 1.1559274 129
-3.9272873 3.9950416 0.29690957 6
-3.8901501 3.9572637 0.096415341 7
-2.6862149 2.7497849 -1.03118 61
-1.2254475 1.2544481 -0.40575671 13
0.1 0.1 0.1 -1
-3.0017931 3.0728312 -0.68516117 39
-2.9822309 3.0528061 -0.52599722 6
-3.5919921 3.6769974 -0.45042342 9
-3.775105 3.8644438 -0.28767291 6
-3.8497345 3.9408395 -0.097095437 5
-9.3700552 9.5917997 3.5852242 219
-9.4173288 9.640192 3.106369 163
-9.4457788 9.6693153 2.6257412 13
-9.5251417 9.750556 2.1536808 89
-9.5302773 9.7558136 1.6689864 128
-9.2099018 9.4278564 1.1515753 128
-3.9356515 4.0287895 0.29849732 7
-3.8916726 3.9837699 0.096762784 6
0.1 0.1 0.1 -1
-1.2011422 1.2373202 -0.39899412 46
-1.1895446 1.2253733 -0.33323279 99
0.1 0.1 0.1 -1
-2.9933648 3.083524 -0.52966696 34
-3.5734842 3.6811161 -0.44955051 5
-3.7838125 3.8977797 -0.28926814 4
-3.8442996 3.9600885 -0.097271651 5
-9.3129597 9.5934629 3.574892 59
-9.312335 9.5928192 3.0816617 1
-9.3811674 9.6637239 2.6162069 15
-9.4187813 9.7024717 2.1365139 1
-9.395874 9.678875 1.650766 1
-9.159421 9.4352999 1.148964 113
-3.964709 4.0841246 0.30167282 6
-3.879138 3.9959762 0.096762784 6
-1.2003275 1.2442787 -0.46377191 63
-1.2040132 1.2480993 -0.40124831 127
-1.1925035 1.236168 -0.33514792 1
-1.199827 1.2437598 -0.27563956 135
0.1 0.1 0.1 -1
-3.5480692 3.6779852 -0.44780469 14
-3.7784817 3.9168344 -0.28979987 3
-3.8457229 3.9865379 -0.097624086 4
-9.2693605 9.6087675 3.569726 125
-9.3092136 9.6500797 3.0906463 17
-9.3303146 9.6719532 2.6104863 25
-9.3539648 9.6964693 2.1287107 7
-9.3929863 9.7369204 1.6556247 1
-9.0882359 9.42101 1.1437415 27
-3.9657252 4.1109338 0.30273134 4
-3.8804486 4.0225348 0.097110227 6
-1.1362578 1.1852927 -0.44045377 133
-1.1933442 1.2448426 -0.39899412 38
0.1 0.1 0.1 -1
-1.2095811 1.2617804 -0.27878973 5
-1.2156718 1.2681338 -0.21651512 129
-3.5296032 3.6819224 -0.44693178 75
-3.7730684 3.9358943 -0.29033163 3
-3.8400991 4.0058174 -0.097800307 3
-80.223976 83.68602 30.996174 -1
-80.920219 84.412308 26.95331 -1
-9.2659178 9.6657858 2.6009521 27
-82.024544 85.564293 18.727659 -1
-82.427155 85.984276 14.576301 -1
-9.0310183 9.4207497 1.1402597 4
-3.9666116 4.1377897 0.30378982 8
-3.8747115 4.0419235 0.097283952 3
-1.1525142 1.2098364 -0.44822648 1
-1.1759877 1.2344772 -0.39448568 82
-1.1576337 1.2152103 -0.32748738 41
-1.1579317 1.2155231 -0.26776415 137
-1.2390645 1.3006912 -0.22140813 73
-3.5180187 3.6929927 -0.44693178 145
-3.7744601 3.9621887 -0.2913951 5
-3.8412883 4.0323405 -0.098152734 9
-79.960678 83.937637 30.996174 -1
-80.654625 84.666107 26.95331 -1
-9.2016516 9.6593094 2.5914178 25
-81.755333 85.821556 18.727659 -1
-82.156616 86.242805 14.576301 -1
-8.9807634 9.4274359 1.1376485 10
-4.0569096 4.2586861 0.3117286 15
-3.875787 4.0685554 0.097631395 4
0.1 0.1 0.1 -1
-1.1721036 1.2381656 -0.39448568 14
-1.1605577 1.225969 -0.32940251 33
-1.1948406 1.2621839 -0.27721465 26
-1.1872108 1.2541242 -0.21284539 127
-82.181236 86.813126 -10.474963 -1
-3.7688589 3.9812789 -0.29192686 4
-3.835475 4.0516496 -0.098328955 12
-79.696587 84.188431 30.996174 -1
-9.1642599 9.6807747 3.0726774 225
-9.1442661 9.6596546 2.5837903 22
-81.485313 86.07798 18.727659 -1
-81.885277 86.500481 14.576301 -1
-8.9168596 9.4194298 1.1332964 39
-4.070971 4.3004184 0.3138456 12
-3.8698599 4.0879722 0.097805113 4
-1.1316543 1.2029839 -0.44304469 34
-1.1748836 1.248938 -0.3967399 45
-1.1365255 1.2081622 -0.32365713 37
-1.1638042 1.2371602 -0.27091432 23
-1.1968657 1.2723057 -0.21529187 111
-1.1876675 1.2625277 -0.15188697 210
-3.763175 4.0003729 -0.29245859 5
-3.8295782 4.0709615 -0.098505169 6
-79.431702 84.438385 30.996174 -1
-9.1204481 9.695322 3.0681851 199
-9.0802441 9.6525841 2.5742562 21
-81.214493 86.333549 18.727659 -1
-9.1950788 9.7746563 1.6422632 157
-8.8599195 9.4183722 1.1298146 117
-4.0779672 4.3350067 0.31543335 12
-3.8775506 4.1219578 0.098326273 5
-1.1014864 1.1783102 -0.43268105 48
-1.1509947 1.2312713 -0.38997728 31
-1.1394268 1.2188967 -0.32557225 38
-1.1464244 1.2263823 -0.26776415 47
-1.1996404 1.2833098 -0.21651512 96
-1.2109066 1.2953619 -0.15537862 71
-3.7369504 3.9975855 -0.2913951 8
-3.8235979 4.0902762 -0.09868139 7
-79.166039 84.687515 30.996174 -1
-9.0433636 9.6740971 3.0524623 210
-9.0230608 9.6523781 2.5666287 21
-80.942863 86.588264 18.727659 -1
-9.1236553 9.7599888 1.6349751 156
-8.8098783 9.4243279 1.1272033 127
-4.0916057 4.3769765 0.31755036 10
-3.9533443 4.2290721 0.10058466 6
-1.1109263 1.1959176 -0.43786287 35
-1.1537516 1.2420192 -0.39223149 55
-1.1422719 1.2296613 -0.32748738 34
-1.1492869 1.237213 -0.26933923 27
-1.1753384 1.2652575 -0.21284539 103
-1.1729314 1.2626665 -0.15101406 136
-81.555618 87.795021 -6.3809147 -1
-3.817534 4.1095939 -0.098857604 7
-78.899597 84.935806 30.996174 -1
-8.9797668 9.6667624 3.0412319 225
-8.9726486 9.6591005 2.5609081 18
-15.414777 16.594082 3.5785437 114
-9.0794373 9.7740583 1.6325456 156
-8.7463274 9.4154644 1.1228513 128
-4.0982242 4.4117584 0.31913811 10
-3.994478 4.3000751 0.10197443 5
-1.1006125 1.1923047 -0.43527198 44
-1.1630605 1.2599554 -0.3967399 28
-1.1250886 1.2188199 -0.32365713 67
-1.1386962 1.2335613 -0.26776415 50
-1.1646258 1.2616509 -0.21162213 75
-1.1892298 1.2883048 -0.15363279 64
-81.279396 88.050797 -6.3809147 -1
-3.8181682 4.1362605 -0.099210039 30
-78.632378 85.18325 30.996174 -1
-8.9427443 9.6877651 3.0389857 214
-8.9023094 9.6439619 2.5494668 20
-15.33577 16.613396 3.5723011 67
-9.0217552 9.7733603 1.6276869 158
-8.6964331 9.4209347 1.12024 130
-4.1046638 4.4466243 0.32072586 10
-4.0148587 4.3493371 0.10284303 5
-1.0968614 1.1957564 -0.43527198 35
-1.1590966 1.263603 -0.3967399 32
-1.1278886 1.2295812 -0.32557225 50
-1.1281399 1.2298552 -0.26618907 48
-1.1539474 1.2579895 -0.21039888 72
-1.1515069 1.255329 -0.14926822 137
-1.1677843 1.273074 -0.091991521 70
-3.8389482 4.1850758 -0.10009112 126
-78.36438 85.429863 30.996174 -1
-8.8859167 9.687088 3.0300012 226
-8.8520603 9.6501799 2.5437465 14
-80.123207 87.347275 18.727659 -1
-8.9574585 9.7650805 1.6216134 159
-8.6263885 9.4041615 1.1150174 80
-4.1109252 4.4815745 0.32231361 8
-4.0282097 4.3914013 0.10353792 8
-1.0930994 1.1991965 -0.43527198 34
-1.1354315 1.2456375 -0.38997728 40
-1.130632 1.2403722 -0.32748738 46
-1.1375756 1.2479897 -0.26933923 41
-1.1366177 1.2469387 -0.20795238 71
-1.1811118 1.2957515 -0.15363279 51
-1.1503249 1.2619765 -0.090928033 72
-80.82637 88.671448 -2.1146011 -1
-78.095604 85.675629 30.996174 -1
-8.8291817 9.6861496 3.0210168 227
-8.7886353 9.6416674 2.5342121 12
-79.848404 87.598557 18.727659 -1
-8.8933029 9.7564945 1.6155399 186
-8.5565367 9.3870411 1.1097949 137
-80.725632 88.560928 6.351007 -1
-4.0413361 4.4335918 0.1042328 8
-1.0893265 1.2026247 -0.43527198 43
-1.1380532 1.2564193 -0.39223149 39
-1.1135516 1.2293693 -0.32365713 33
-1.1137607 1.2296002 -0.26461399 86
-1.1326946 1.2505033 -0.20795238 101
-1.1502844 1.2699226 -0.15014113 128
-1.1530585 1.2729852 -0.091459781 72
-80.547401 88.924934 -2.1146011 -1
-77.826065 85.920555 30.996174 -1
-7.7389383 8.5438461 2.6571472 1
-79.081734 87.306824 22.882277 -1
-7.8379216 8.6531239 1.8446745 13
-7.8097572 8.6220303 1.4236187 1
-80.254158 88.601181 10.445127 -1
-4.618999 5.0994096 0.36465365 8
-4.0475249 4.4684973 0.10475396 11
-1.0920045 1.2132198 -0.43786287 90
-1.1275827 1.2527471 -0.38997728 41
-1.0965517 1.2182715 -0.31982687 28
-1.1231053 1.2477727 -0.26776415 35
-1.1553196 1.2835628 -0.21284539 129
-1.172947 1.303147 -0.15363279 64
-1.1423731 1.2691792 -0.090928033 80
-1.1304359 1.2559171 -0.029780634 106
-7.6521673 8.5015764 3.0582893 1
-7.6794639 8.5319023 2.6459165 1
-7.7362266 8.5949659 2.2462769 1
-7.7049699 8.5602398 1.8197043 1
-7.7494292 8.6096344 1.4175452 1
-7.8309255 8.7001772 1.022752 37
-4.5561914 5.0619397 0.36094889 8
-4.0535336 4.5034857 0.10527513 6
-1.0946268 1.2238435 -0.44045377 76
-1.1171464 1.2490215 -0.38772309 50
-1.0992621 1.229026 -0.321742 26
-1.1191798 1.2512949 -0.26776415 47
-1.1512815 1.287186 -0.21284539 141
-1.155565 1.2919753 -0.15188697 133
-1.1450374 1.2802049 -0.091459781 51
-1.1331503 1.2669147 -0.029956849 99
-7.625421 8.5255747 3.0582893 27
-7.6786075 8.5850391 2.654901 12
-78.531609 87.801979 22.882277 -1
-7.6912093 8.5991287 1.8228256 1
-7.7620468 8.6783285 1.4248333 6
-7.7769895 8.695035 1.0192704 3
-4.5003228 5.0315695 0.35777339 8
-4.0593624 4.5385551 0.10579629 6
-1.0845731 1.2198677 -0.43786287 128
-1.0875417 1.2232066 -0.37870628 104
-1.0956107 1.2322822 -0.321742 23
-1.1154622 1.2546101 -0.26776415 42
-1.1408627 1.283179 -0.21162213 132
-1.1384883 1.2805085 -0.15014113 136
-1.1213287 1.2612083 -0.089864552 51
-1.1426733 1.2852156 -0.030309284 61
-7.567997 8.512063 3.0453742 17
-7.6207275 8.571372 2.6436706 21
-7.6379209 8.5907097 2.2329288 4
-7.6787872 8.6366739 1.8259468 23
-7.7098823 8.671648 1.4199746 4
-7.71806 8.6808462 1.0149182 3
-4.4322929 4.9851971 0.35353938 8
-4.0724521 4.5804687 0.10649118 7
-1.0937412 1.2375547 -0.44304469 102
-1.0839076 1.226428 -0.37870628 79
-1.0984493 1.2428818 -0.32365713 44
-1.1313536 1.2801126 -0.2724894 36
-1.1501955 1.3014319 -0.21406862 133
-1.154475 1.3062741 -0.15275988 121
-1.1109687 1.2570474 -0.089332812 38
-1.1189913 1.2661247 -0.029780634 71
-7.5171175 8.5055256 3.035042 18
-7.5759029 8.5720406 2.6369321 21
-7.6058974 8.605979 2.2310219 7
-7.6335049 8.6372156 1.821265 9
-7.6578264 8.6647358 1.4151158 5
-7.6856723 8.6962433 1.0140479 10
-4.3844171 4.9609137 0.35089314 8
-4.065465 4.6000233 0.1066649 8
-1.076673 1.2268461 -0.43786287 48
-1.0731937 1.2228816 -0.37645206 165
-1.0811561 1.2319546 -0.31982687 78
-1.1399058 1.2988986 -0.27563956 67
-1.139099 1.2979792 -0.21284539 144
-1.1433372 1.3028086 -0.15188697 70
-1.0999873 1.2534122 -0.088801064 77
-1.1145648 1.270023 -0.029780634 65
-7.4746375 8.5171909 3.029876 17
-7.5266523 8.5764608 2.6301937 18
-7.5499101 8.6029634 2.2233944 5
-7.5772476 8.6341133 1.8150223 8
-7.6078925 8.6690321 1.4114717 4
-4.9020014 5.5857267 0.64933878 12
-4.4065943 5.0212212 0.35406864 9
-4.0757637 4.6442466 0.10735979 14
0.1 0.1 0.1 -1
-1.0821532 1.2409326 -0.38096046 14
-1.064379 1.2205505 -0.31599659 121
-1.1228389 1.2875879 -0.2724894 87
-1.1350157 1.3015515 -0.21284539 155
-1.0868599 1.24633 -0.14490366 225
-1.1157336 1.2794402 -0.090396293 44
-1.1171408 1.2810539 -0.029956849 97
-7.4224453 8.511507 3.0195439 15
-7.4740534 8.5706873 2.6212094 16
-7.4970388 8.5970449 2.2157671 5
-7.5306096 8.6355419 1.8103405 7
-7.5545254 8.6629667 1.406613 4
-7.5689006 8.679451 1.006214 7
-4.5154991 5.1780381 0.36412439 8
-78.857346 90.427727 2.084656 -1
-1.0565058 1.2188038 -0.43268105 1
-1.0593221 1.2220527 -0.37419787 212
-1.0864681 1.2533687 -0.32365713 52
-1.1125453 1.2834518 -0.27091432 59
-1.1116464 1.2824149 -0.20917563 129
-1.1223074 1.2947137 -0.15014113 86
-1.0661471 1.229926 -0.086674094 123
-1.1067859 1.2768078 -0.029780634 63
-7.3718476 8.5042934 3.009212 17
-7.4294429 8.5707359 2.614471 20
-7.4457784 8.5895815 2.2081397 5
-7.4661355 8.6130657 1.8009766 4
-7.509284 8.6628418 1.4029689 4
-7.5300646 8.6868153 1.0044731 2
-4.4804935 5.168776 0.36253664 7
-78.588692 90.661301 2.084656 -1
0.1 0.1 0.1 -1
-1.0556915 1.2251903 -0.37419787 7
0.1 0.1 0.1 -1
-1.0636095 1.2343795 -0.25988874 60
-1.1207937 1.300745 -0.21162213 70
-78.032166 90.560783 -10.474963 -1
-1.1016033 1.2784735 -0.089864552 62
-1.1029927 1.280086 -0.029780634 128
-7.3276644 8.5041733 3.0014629 16
-7.3785372 8.5632133 2.6054866 19
-7.3946285 8.5818892 2.2005122 4
-7.4147568 8.6052494 1.7947341 4
-7.4576306 8.6550064 1.3981102 4
-7.4912515 8.694025 1.0027323 11
-4.4586191 5.1744823 0.36200741 6
-1.096471 1.2725171 0.029185185 29
-1.0299858 1.2034043 -0.42490834 38
-1.0136124 1.1842741 -0.36067262 149
-1.0530432 1.2303439 -0.31599659 45
-1.0851953 1.2679095 -0.26618907 63
-1.0648452 1.244133 -0.20183614 34
-1.1076728 1.2941715 -0.14926822 66
-1.0713847 1.2517735 -0.087737583 119
-1.0922403 1.2761406 -0.029604416 95
-7.2742958 8.4990683 2.9911308 17
-7.3310909 8.5654259 2.5987482 18
-7.353363 8.5914478 2.1966984 5
-7.3733344 8.6147814 1.7916129 4
-7.4095259 8.6570663 1.394466 4
-7.4429464 8.6961145 1.000121 8
-4.4284487 5.1740661 0.36094889 8
-1.1182508 1.3065306 0.029880069 6
-1.0136855 1.1919192 -0.41972655 102
-1.0288223 1.2097174 -0.36743525 18
-1.0173796 1.1962628 -0.30642095 105
-1.055616 1.2412223 -0.25988874 23
-1.0480716 1.2323513 -0.19938964 36
-1.1036016 1.297645 -0.14926822 26
-1.0868549 1.2779539 -0.089332812 65
-1.0817482 1.2719492 -0.029428199 131
-7.2287836 8.4998016 2.9833817 16
-7.2788939 8.5587225 2.5897639 16
-7.3072567 8.5920725 2.1909781 4
-7.3334355 8.6228542 1.7884915 6
-7.369431 8.6651783 1.3920367 4
-7.3897743 8.6890993 0.99663925 6
-4.3992333 5.1727386 0.3598904 7
-1.1076633 1.3024207 0.029706348 11
-1.0348727 1.2246065 -0.43009016 46
-1.0250168 1.2129436 -0.36743525 141
-1.0072814 1.1919565 -0.30450583 1
-1.0325894 1.2219045 -0.25516349 36
-1.0313827 1.2204766 -0.19694313 32
-1.0930896 1.2934968 -0.14839531 20
-1.057053 1.2508533 -0.087205835 112
-1.0712934 1.2677045 -0.029251983 126
-7.1771026 8.4929543 2.9730496 15
-7.2331009 8.5592194 2.5830255 16
-7.2485476 8.5774975 2.1814437 5
-7.280808 8.6156731 1.782249 5
-7.316545 8.6579618 1.3871779 4
-7.33672 8.6818361 0.99315757 5
-4.37007 5.1712794 0.35883188 7
-1.1100197 1.3135309 0.029880069 9
-0.99996555 1.190868 -0.41713563 99
-1.002406 1.1937745 -0.36067262 31
-1.0098433 1.2026316 -0.30642095 46
-0.9969942 1.1873294 -0.24728806 17
-1.0147789 1.2085093 -0.19449663 34
-1.0633966 1.2664086 -0.14490366 17
-1.0788039 1.2847575 -0.089332812 57
-1.0673054 1.2710638 -0.029251983 141
-7.1317492 8.4932652 2.9653008 16
-7.187377 8.5595131 2.5762873 15
-7.2026272 8.5776739 2.1757231 4
-7.2282982 8.6082458 1.7760065 4
-7.2637777 8.6504984 1.3823191 4
-7.2837849 8.6743259 0.98967588 5
-4.3345375 5.1620402 0.35724413 7
-1.0930284 1.3016976 0.029532628 7
-1.0209702 1.2236683 -0.42749926 35
-1.0048922 1.2043984 -0.36292684 52
-0.99977225 1.198262 -0.30450583 14
-1.0059122 1.2056208 -0.25043824 15
-0.99190217 1.1888293 -0.19082689 23
-1.0275028 1.2314979 -0.14053909 82
-1.0235833 1.2268002 -0.085078865 102
-1.063307 1.2744106 -0.029251983 70
-7.0864644 8.4933748 2.9575517 16
-7.1417227 8.5596037 2.5695488 17
-7.1630659 8.5851841 2.1719093 4
-7.1822352 8.6081591 1.7713245 4
-7.2174883 8.6504116 1.3786751 3
-7.2373509 8.6742172 0.9870646 4
-4.2927094 5.1449618 0.35512713 7
-1.0825282 1.2974478 0.029358907 12
0.1 0.1 0.1 -1
-1.0073216 1.2150497 -0.36518106 43
-1.002267 1.2089528 -0.30642095 26
-0.99581701 1.2011726 -0.24886315 13
-0.99449682 1.1995803 -0.19205014 25
-1.0109129 1.2193816 -0.13879326 10
-1.0515906 1.2684476 -0.087737583 41
-1.0465355 1.2623503 -0.028899549 102
-7.0412498 8.4932842 2.9498026 16
-7.1023583 8.5669947 2.5650566 15
-7.1172643 8.5849743 2.1661887 4
-7.1362443 8.6078682 1.7666426 4
-7.1649365 8.642477 1.3738163 4
-7.1909904 8.6739035 0.98445332 4
-4.2574048 5.1353593 0.35353938 6
-1.0784469 1.3008423 0.029358907 15
-1.0011916 1.2149746 -0.42231745 31
-0.99751633 1.2105144 -0.36292684 35
-0.98619217 1.1967722 -0.30259067 30
-0.97968853 1.18888 -0.24571298 15
-0.99724489 1.2101851 -0.1932734 16
-0.99462014 1.2069999 -0.13704744 34
-76.205261 92.477249 -6.3809147 -1
-1.0427854 1.2654499 -0.028899549 11
-7.0160184 8.5141382 2.9498026 19
-7.0645142 8.5729895 2.5605645 17
-7.0855179 8.5984774 2.1642818 5
-7.0981097 8.6137581 1.7635213 5
-7.1455746 8.6713581 1.375031 4
-7.1778932 8.710578 0.98619413 4
-4.2357984 5.1402621 0.35301015 7
-1.0809408 1.3117526 0.029532628 9
0.1 0.1 0.1 -1
-0.98774683 1.2059318 -0.36067262 25
-0.97641772 1.1921 -0.30067554 35
-0.9886716 1.2070607 -0.24886315 40
-0.98736089 1.2054605 -0.19205014 29
-0.99103457 1.2099457 -0.13704744 9
-0.99342453 1.2128636 -0.083483636 1
-1.001013 1.2221284 -0.027842248 37
-7.0090899 8.5573387 2.9575517 18
-7.0513959 8.6089897 2.5650566 19
-7.0848556 8.6498404 2.1719093 5
-7.0975566 8.6653461 1.7697638 5
-7.1323938 8.7078791 1.3774604 4
-7.1646419 8.7472506 0.98793501 4
-4.1952181 5.1219058 0.35089314 8
-1.077044 1.3149539 0.029532628 5
-0.99353802 1.2212412 -0.42231745 34
-0.97759402 1.2016431 -0.35841843 44
-0.96007121 1.1801043 -0.29684529 28
-0.97219932 1.195012 -0.24571298 36
-0.97709459 1.2010292 -0.19082689 29
-0.9870168 1.2132254 -0.13704744 36
-75.622711 92.954239 -6.3809147 -1
-0.98433512 1.2099292 -0.027489815 29
-7.0050611 8.6105099 2.9678836 18
-7.0474072 8.6625614 2.5740411 18
-7.0747175 8.6961308 2.1776299 5
-7.0812492 8.7041597 1.7728852 5
-7.1285348 8.7622824 1.3823191 4
-7.1607432 8.8018723 0.99141669 4
-4.1719079 5.1280432 0.35036388 7
-1.053748 1.2952504 0.029011464 9
-0.97755301 1.2093337 -0.41713563 67
-0.97381413 1.2047083 -0.35841843 44
-0.95635903 1.1831146 -0.29684529 26
-0.96844023 1.1980604 -0.24571298 46
-0.97955585 1.2118114 -0.19205014 26
-0.98320043 1.2163203 -0.13704744 30
-0.97929406 1.2114875 -0.082951896 19
-0.99310005 1.2285671 -0.027842248 22
-6.9961948 8.655014 2.9756327 19
-7.050787 8.7225494 2.5852716 15
-7.0658765 8.7412167 2.1833506 5
-7.0849161 8.7647715 1.7806884 6
-7.1259317 8.8155107 1.3871779 4
-7.1643686 8.8630619 0.99576885 4
-4.1369443 5.1178265 0.34877613 8
-1.0496737 1.2985544 0.029011464 10
-0.98584521 1.2274597 -0.42231745 47
-0.96392387 1.2001657 -0.35616422 58
-0.95878351 1.1937656 -0.29876041 28
-0.96467167 1.2010969 -0.24571298 31
-0.96952909 1.2071447 -0.19082689 22
-0.98561245 1.2271699 -0.13792035 45
-75.03717 93.427551 -6.3809147 -1
-0.98297453 1.2238854 -0.027666032 18
-6.9931679 8.7070789 2.9859648 17
-7.0416555 8.7674494 2.59201 19
-7.0691156 8.8016396 2.1928847 5
-7.082087 8.81779 1.7869309 5
-7.1168485 8.8610716 1.3908219 4
-7.1552038 8.9088268 0.99838012 4
-4.0770736 5.0762973 0.34507138 8
-1.05185 1.3096411 0.029185185 8
-0.97595972 1.2230014 -0.41972655 97
-0.96622556 1.2108032 -0.35841843 54
-0.95502847 1.1967719 -0.29876041 26
-0.95473397 1.1964028 -0.2441379 20
-0.95954138 1.202427 -0.18960364 19
-0.96932513 1.2146873 -0.13617453 24
-0.97166276 1.2176167 -0.082951896 30
-0.98536122 1.2347826 -0.027842248 40
-6.9959083 8.7667608 2.9988799 18
-7.0383892 8.8199949 2.6009943 19
-7.0597982 8.8468227 2.1986053 5
-7.0728331 8.8631573 1.7916129 5
-7.1199317 8.9221773 1.3968954 4
-7.1520357 8.9624081 1.0018618 4
-4.0611057 5.0890808 0.34507138 6
-1.0414939 1.305124 0.029011464 8
-0.99611551 1.2563345 -0.43009016 71
-0.96241695 1.2138327 -0.35841843 106
-0.95736182 1.2074571 -0.30067554 33
-0.95097065 1.1993963 -0.2441379 32
-0.95575911 1.2054356 -0.18960364 24
-0.96550429 1.2177266 -0.13617453 16
-0.96783274 1.2206633 -0.082951896 45
-0.97526526 1.2300375 -0.027666032 25
-6.9863381 8.8114052 3.006629 20
-7.040916 8.8802414 2.6122248 19
-7.056366 8.8997269 2.2062328 5
-7.0756373 8.9240322 1.7994161 5
-7.1165342 8.9756126 1.4017543 4
-7.1609797 9.0316696 1.0070844 4
-4.1195478 5.1957126 0.3514224 9
-1.0373887 1.3083895 0.029011464 7
-0.9861868 1.2518706 -0.42749926 75
-0.95859885 1.2168503 -0.35841843 94
-0.95356381 1.2104588 -0.30067554 38
-0.94719797 1.2023779 -0.2441379 30
-0.95196742 1.2084323 -0.18960364 19
-0.95550936 1.2129284 -0.1353016 21
-0.95781368 1.2158536 -0.082420148 37
-0.97758347 1.2409494 -0.027842248 40
-6.988513 8.871254 3.0195439 17
-7.0310736 8.9252806 2.6189632 21
-7.0587449 8.9604073 2.2157671 6
-7.0659041 8.9694948 1.8040979 5
-7.1067286 9.0213175 1.4053982 4
-7.1510649 9.0775976 1.0096956 4
-4.0784864 5.1772513 0.34930539 9
-1.0332731 1.3116422 0.029011464 11
-0.98224908 1.2549626 -0.42749926 80
-0.97278583 1.2428719 -0.36518106 74
-0.95580572 1.2211775 -0.30259067 43
-0.94341594 1.2053477 -0.2441379 36
-0.94816631 1.211417 -0.18960364 22
-0.95169413 1.2159243 -0.1353016 14
-0.95398927 1.2188566 -0.082420148 29
-0.96751755 1.236141 -0.027666032 72
-6.984426 8.9235954 3.029876 19
-7.0330296 8.985693 2.6301937 18
-7.0547619 9.0134592 2.2233944 5
-7.0681305 9.0305395 1.8119011 6
-7.1089416 9.0826817 1.4114717 4
-7.1470718 9.1313982 1.0131774 4
-4.0622015 5.1900392 0.34930539 9
-1.0476351 1.3385024 0.029532628 4
-0.98423076 1.2656667 -0.43009016 67
-0.96289569 1.2382309 -0.36292684 69
-0.94593948 1.2164263 -0.30067554 53
-0.93962455 1.2083056 -0.2441379 42
-0.95044845 1.2222245 -0.19082689 22
-0.95398474 1.2267721 -0.13617453 24
-0.95015538 1.2218477 -0.082420148 38
-0.95135379 1.2233887 -0.027313598 25
-6.9800787 8.9759979 3.0402081 21
-7.0227108 9.0308208 2.6369321 19
-7.0505147 9.0665751 2.2310219 5
-7.0639791 9.08389 1.8181437 6
-7.1108384 9.1441479 1.4175452 4
-7.1489267 9.1931267 1.0175295 4
-4.0213561 5.1712432 0.34718838 8
-0.99432248 1.2786441 0.028142856 5
-0.9802497 1.2687526 -0.43009016 59
-0.95900095 1.2412499 -0.36292684 75
-0.94211328 1.2193919 -0.30067554 43
-0.94186151 1.219066 -0.24571298 81
-0.94053608 1.2173505 -0.18960364 30
-0.94403547 1.2218798 -0.1353016 20
-0.9341017 1.2090224 -0.081356667 29
-0.95361865 1.2342836 -0.027489815 26
-6.975471 9.0284615 3.0505402 19
-7.018136 9.083683 2.6459165 20
-7.0460033 9.1197519 2.2386494 6
-7.0595627 9.1373024 1.8243862 5
-7.1124196 9.2057152 1.4236187 4
-7.1504636 9.2549572 1.0218817 4
