# .PCD v0.7 - Point Cloud Data file format
VERSION 0.7
FIELDS x y z intensity
SIZE 4 4 4 4
TYPE F F F F
COUNT 1 1 1 1
WIDTH 1357
HEIGHT 1
VIEWPOINT 0 0 0 1 0 0 0
POINTS 1357
DATA ascii
0.1 0.1 0.1 -1
-0.95768088 -0.32378453 -0.19725849 76
-1.0009822 -0.33842438 -0.16853391 99
-3.7796354 -1.2778658 -0.49174622 12
-9.0312672 -3.0534019 -0.83537835 7
-9.6963148 -3.2782495 -0.54503649 78
-10.939872 -3.6986866 -0.20353036 23
-13.755068 -4.6504827 3.8822708 37
-3.5539992 -1.2015798 0.86475199 53
-111.59278 -37.728664 22.882277 -1
-13.586576 -4.5935168 2.2660468 2
-13.643861 -4.6128845 1.7625177 4
-13.674599 -4.6232767 1.2612492 4
-13.698 -4.6311884 0.76635486 4
-11.536642 -3.9004502 0.21159258 3
0.1 0.1 0.1 -1
-0.93315446 -0.31222913 -0.2276746 131
-0.94007796 -0.31454569 -0.19342822 100
-1.0020404 -0.33527803 -0.16853391 80
-3.8024554 -1.2722838 -0.49419272 17
-4.9502478 -1.6563296 -0.45740673 13
-113.63784 -38.02269 -6.3809147 -1
-10.979883 -3.6738174 -0.204059 41
-3.5454683 -1.1862971 0.99962664 127
-3.5854793 -1.1996846 0.87149036 66
-13.712496 -4.5881371 2.8087995 8
-13.582206 -4.5445423 2.2629256 13
-13.639459 -4.5636992 1.7600882 5
-13.670161 -4.5739722 1.2595084 4
-13.703012 -4.5849633 0.76582557 5
-11.548839 -3.8641875 0.21159258 10
0.1 0.1 0.1 -1
-0.93413073 -0.30929598 -0.2276746 135
-0.95969635 -0.31776091 -0.19725849 74
-1.0124635 -0.33523238 -0.17010899 90
-3.8252773 -1.266571 -0.49663922 13
-4.898685 -1.6219825 -0.45216924 13
-10.683653 -3.5374181 -0.59927428 1
-11.010354 -3.6455905 -0.20441145 23
-3.4758096 -1.1508603 0.97896248 1
-3.5799799 -1.1853516 0.86924422 138
-13.857307 -4.588233 2.8354955 10
-13.708938 -4.5391068 2.2816532 18
-13.663152 -4.5239472 1.7613029 7
-13.675007 -4.5278721 1.2586379 4
-13.698388 -4.535614 0.76476711 4
-11.532447 -3.8184586 0.21107142 5
0.1 0.1 0.1 -1
-0.95366913 -0.31225991 -0.23218301 132
-0.97007245 -0.31763083 -0.19917361 75
-1.0229545 -0.33494598 -0.17168407 87
-3.8388886 -1.2569674 -0.49786246 12
-4.8945694 -1.6026291 -0.45129633 9
-10.818696 -3.5423658 -0.60618693 7
-11.079394 -3.6277263 -0.20546874 8
-3.5622361 -1.166383 1.0022097 6
-111.1284 -36.386776 26.95331 -1
-13.993726 -4.5819659 2.8602846 8
-13.855333 -4.5366521 2.3035021 8
-13.810143 -4.5218554 1.7783086 11
-13.756219 -4.504199 1.2647309 9
-13.722844 -4.4932709 0.76529634 5
-11.535543 -3.7770832 0.2108977 3
0.1 0.1 0.1 -1
-0.9731822 -0.31526741 -0.23669142 135
-0.98040271 -0.31760651 -0.20108874 80
-1.0240016 -0.33173063 -0.17168407 88
-3.8617022 -1.2510184 -0.50030899 17
-4.8995805 -1.5872444 -0.45129633 18
-10.858271 -3.5175929 -0.60778213 10
-11.128784 -3.6052272 -0.20617361 9
-3.5750732 -1.1581635 1.0047927 9
-111.24216 -36.037476 26.95331 -1
-14.148132 -4.5833607 2.8888874 9
-14.010468 -4.5387635 2.3269117 6
-13.95648 -4.5212741 1.7953143 13
-13.893504 -4.5008726 1.2760464 9
-13.831891 -4.4809127 0.77058882 10
-11.537841 -3.7377431 0.21072398 11
0.1 0.1 0.1 -1
-0.98344564 -0.31518194 -0.23894562 129
-0.99074227 -0.31752041 -0.20300387 70
-1.0438468 -0.33453974 -0.17483424 80
-3.8561618 -1.2358513 -0.49908572 10
-4.9045424 -1.5718441 -0.45129633 15
-11.087984 -3.5535593 -0.62001222 7
-10.178392 -3.2620463 -0.18837573 47
-3.5786941 -1.1469264 1.0047927 8
-16.823858 -5.3918347 4.072196 5
-16.76125 -5.3717694 3.4189935 29
-14.156344 -4.5369301 2.3487606 13
-14.084044 -4.5137587 1.8098906 7
-14.01193 -4.4906468 1.2856212 10
-13.950505 -4.4709611 0.77641058 7
-11.520962 -3.6923232 0.21020281 20
0.1 0.1 0.1 -1
-0.97514385 -0.30914655 -0.23669142 128
-0.97302288 -0.30847415 -0.19917361 130
-1.054306 -0.33424306 -0.17640932 57
-3.8789473 -1.2297294 -0.5015322 15
-4.9379444 -1.5654597 -0.45391509 12
-114.22738 -36.213116 -6.3809147 -1
-10.150466 -3.2179677 -0.18767086 3
-3.5914886 -1.1385974 1.0073757 7
-17.045071 -5.4037404 4.1216102 3
-16.909048 -5.3606181 3.4456894 17
-112.98759 -35.820072 18.727659 -1
-14.23062 -4.5114851 1.8268963 8
-14.158916 -4.4887528 1.2978071 7
-14.107268 -4.4723792 0.78434938 8
-11.48485 -3.6410029 0.20933421 6
0.1 0.1 0.1 -1
-0.97611028 -0.30608153 -0.23669142 128
-1.0114483 -0.31716254 -0.20683414 82
-1.0553509 -0.33092922 -0.17640932 125
-3.8733211 -1.2145677 -0.50030899 12
-11.159408 -3.4992855 -1.0248005 20
-10.100084 -3.1671107 -0.56364751 1
-10.112823 -3.1711054 -0.18678977 29
-3.595048 -1.1273088 1.0073757 9
-17.22003 -5.3997312 4.1597943 6
-17.038206 -5.3427162 3.4685717 24
-113.09957 -35.464935 18.727659 -1
-16.906137 -5.3013029 2.1682246 14
-14.296521 -4.4829988 1.3091227 7
-14.235591 -4.4638925 0.79070038 8
-11.496232 -3.6049042 0.20933421 6
0.1 0.1 0.1 -1
-0.98637247 -0.30589932 -0.23894562 133
-0.99369079 -0.30816892 -0.20300387 100
-1.0658174 -0.33053723 -0.1779844 74
-3.8581586 -1.1965137 -0.49786246 11
-10.18081 -3.1573293 -0.93401754 17
-10.100447 -3.1324069 -0.56311572 8
-10.065437 -3.1215496 -0.18573247 3
-3.5985715 -1.1160091 1.0073757 10
-17.404438 -5.3975611 4.2002239 4
-17.026779 -5.2804399 3.462851 12
-14.79283 -4.5876346 2.4470809 9
-17.064917 -5.2922668 2.186445 9
-16.17547 -5.016427 1.4797264 32
-14.354461 -4.4516854 0.79652214 17
-11.51705 -3.5717318 0.20950793 5
0.1 0.1 0.1 -1
-1.0059575 -0.30851221 -0.24345402 128
-1.0415716 -0.31943458 -0.21257953 68
-1.0857328 -0.33297816 -0.18113457 86
-3.8239439 -1.1727469 -0.49296945 9
-10.12401 -3.1048839 -0.92790717 6
-10.091144 -3.0948043 -0.56205225 5
-10.036959 -3.0781863 -0.1850276 3
-110.83261 -33.990719 30.996174 -1
-17.579683 -5.3914285 4.2384081 5
-17.015129 -5.2182879 3.4571307 24
-113.32017 -34.753616 18.727659 -1
-17.233294 -5.2851954 2.2058802 12
-17.134047 -5.2547584 1.5658988 7
-17.041561 -5.2263942 0.94471228 15
-11.518655 -3.5326006 0.20933421 19
0.1 0.1 0.1 -1
-1.0069216 -0.30535039 -0.24345402 126
-1.005 -0.30476764 -0.20491901 127
-1.105674 -0.33529717 -0.18428473 54
-3.8276093 -1.1607279 -0.49296945 8
-10.133715 -3.0730631 -0.92790717 15
-10.072148 -3.0543931 -0.56045705 4
-10.027443 -3.0408361 -0.18467517 4
-110.93885 -33.642361 30.996174 -1
-17.773712 -5.3899031 4.2810841 15
-17.5669 -5.3271871 3.5658214 23
-17.477486 -5.3000722 2.8856204 13
-17.401793 -5.2771177 2.2253151 11
-17.322071 -5.2529421 1.5815665 11
-17.210796 -5.2191978 0.95318031 15
-11.51056 -3.4905932 0.20898677 23
0.1 0.1 0.1 -1
-1.0172082 -0.30498359 -0.24570823 128
-1.0717624 -0.32134026 -0.21832491 62
-1.1256402 -0.33749411 -0.1874349 120
-3.8217301 -1.145847 -0.49174622 9
-10.114693 -3.032629 -0.92528844 5
-10.072129 -3.0198674 -0.55992526 4
-10.027369 -3.0064473 -0.18449895 4
-14.380198 -4.3115306 4.0140047 132
-17.949236 -5.3816142 4.3192677 57
-112.83561 -33.830841 22.882277 -1
-17.664354 -5.2962003 2.9137118 28
-17.551395 -5.262332 2.2423208 15
-17.500708 -5.2471352 1.5963637 10
-17.389719 -5.2138577 0.96217757 17
-11.502315 -3.4486716 0.20863932 16
0.1 0.1 0.1 -1
-1.0275022 -0.30455509 -0.24796243 136
-1.0257155 -0.3040255 -0.20874926 139
0.1 0.1 0.1 -1
-3.8157952 -1.1310145 -0.49052298 9
-10.114618 -2.9980068 -0.92441553 12
-10.071993 -2.9853723 -0.55939353 3
-10.017592 -2.9692481 -0.18414652 2
-14.421458 -4.2745686 4.0217538 89
-18.143566 -5.3778138 4.3619437 126
-14.738845 -4.3686428 2.9861372 10
-17.85137 -5.2912059 2.9418032 21
-114.20048 -33.849403 14.576301 -1
-17.67948 -5.2402568 1.611161 13
-17.5592 -5.2046061 0.97064555 16
-11.503506 -3.4096775 0.20846561 12
0.1 0.1 0.1 -1
-1.0378035 -0.30406493 -0.25021663 118
-1.0831792 -0.31735951 -0.22024006 77
0.1 0.1 0.1 -1
-3.8193295 -1.1190213 -0.49052298 9
-10.104867 -2.9606142 -0.92266971 7
-10.081322 -2.9537156 -0.55939353 3
-10.046062 -2.9433846 -0.18449895 2
-14.444087 -4.2319574 4.0243368 80
-18.328695 -5.3701048 4.4023738 70
-113.04595 -33.121212 22.882277 -1
-18.029049 -5.2823114 2.9683342 6
-114.30626 -33.490467 14.576301 -1
-17.867937 -5.2351074 1.6268287 11
-17.747961 -5.1999559 0.9801721 18
-11.504565 -3.3707101 0.20829189 26
0.1 0.1 0.1 -1
-1.0481118 -0.30351302 -0.25247085 117
-1.0653157 -0.30849496 -0.21640979 109
-3.1586616 -0.91468769 -0.52450269 42
-3.813293 -1.1042564 -0.48929971 8
-10.104549 -2.9260833 -0.9217968 10
-10.090551 -2.9220295 -0.55939353 2
-10.074467 -2.9173717 -0.18485138 14
-14.485149 -4.1946206 4.0320859 70
-112.31924 -32.525494 26.95331 -1
-18.377356 -5.3217287 3.7164631 19
-18.235308 -5.2805943 2.999547 21
-18.143663 -5.254056 2.3115582 11
-18.056536 -5.2288256 1.6424963 27
-17.927273 -5.1913934 0.98916936 14
-11.495891 -3.3289888 0.20794444 26
0.1 0.1 0.1 -1
-1.0584267 -0.3028993 -0.25472504 126
-1.1040241 -0.31594831 -0.22407031 56
-3.1425316 -0.89932597 -0.52135253 78
-3.7976596 -1.0868098 -0.48685321 8
-10.113692 -2.8943245 -0.9217968 9
-10.109282 -2.8930624 -0.55992526 2
-10.093194 -2.8884585 -0.1850276 11
-3.891588 -1.1136901 1.0822831 47
-16.694498 -4.7776117 4.0025663 63
-18.563862 -5.3125839 3.7507865 19
-18.413244 -5.2694802 3.0260777 19
-18.341394 -5.2489185 2.3346374 14
-18.254847 -5.2241507 1.6590345 10
-18.125904 -5.1872497 0.99922508 14
-11.487066 -3.2873552 0.207597 25
-0.94799525 -0.26807693 -0.26427227 199
-1.0781231 -0.30487484 -0.25923344 126
-1.048344 -0.29645383 -0.21257953 142
-3.1453414 -0.889449 -0.52135253 39
-3.8106055 -1.0775744 -0.48807648 8
-10.132321 -2.865248 -0.92266971 9
-10.11832 -2.8612888 -0.55992526 3
-10.102219 -2.8567355 -0.1850276 10
-3.7928104 -1.0725422 1.05387 1
-14.702794 -4.1577001 3.5218992 73
-18.769382 -5.3076615 3.7889235 18
-18.591288 -5.2572999 3.0526085 33
-18.53927 -5.24259 2.3577166 15
-18.44372 -5.21557 1.6747022 12
-18.305466 -5.1764741 1.0082223 14
-11.487717 -3.2485306 0.20742327 14
-1.0046464 -0.28069136 -0.2798177 181
-1.0884588 -0.30410793 -0.26148766 117
-1.1343461 -0.31692854 -0.22981571 66
-3.1386092 -0.87690592 -0.51977748 107
-3.7948544 -1.0602564 -0.48562998 8
-10.141273 -2.8334024 -0.92266971 10
-10.127259 -2.8294871 -0.55992526 3
-10.120773 -2.8276749 -0.18520382 10
-3.8519871 -1.0762188 1.069368 7
-3.8948023 -1.0881811 0.93213528 1
-16.932894 -4.7309351 3.4151797 87
-16.077215 -4.4918642 2.6374788 35
-18.746845 -5.2377405 2.3820105 13
-18.613527 -5.2004924 1.688629 14
-18.504374 -5.1699958 1.0182781 18
-11.536384 -3.2231867 0.20811816 46
-1.0427649 -0.2878128 -0.29018131 171
-1.1081917 -0.30587122 -0.26599607 113
-1.0974916 -0.3029179 -0.22215518 142
-3.1413486 -0.86704141 -0.51977748 38
-3.7981665 -1.0483292 -0.48562998 8
-10.150124 -2.8015287 -0.92266971 10
-10.155351 -2.8029711 -0.56098878 4
-10.148883 -2.8011861 -0.18555625 11
-3.8460367 -1.0615419 1.066785 7
-3.9545612 -1.0914956 0.94561195 14
-3.9364779 -1.0865045 0.79325223 1
-114.25738 -31.5361 18.727659 -1
-18.954571 -5.231638 2.4063044 11
-18.581758 -5.1287379 1.6842768 12
-18.693794 -5.1596608 1.0278046 16
-11.613919 -3.2055497 0.20933421 9
-1.043664 -0.28453544 -0.29018131 173
-1.1091472 -0.30238822 -0.26599607 124
-1.1552535 -0.31495827 -0.23364598 59
-3.144057 -0.85716832 -0.51977748 113
-3.7918658 -1.0337813 -0.48440671 8
-4.9208555 -1.3415792 -0.44693178 22
-10.17374 -2.77368 -0.56152052 5
-10.176926 -2.7745485 -0.18590869 9
-3.8400321 -1.0469129 1.064202 5
-3.9203653 -1.0688143 0.93662751 5
-3.987226 -1.0870426 0.80278653 4
-4.0501046 -1.1041852 0.66327131 37
-18.951761 -5.1668429 2.4038749 11
-18.568945 -5.0624757 1.6816655 9
-18.921867 -5.1586928 1.0394481 19
-11.720397 -3.1953471 0.21107142 45
-1.0632054 -0.28627768 -0.29536313 194
-1.1194992 -0.30143532 -0.26825029 112
0.1 0.1 0.1 -1
-3.1467342 -0.84728676 -0.51977748 38
-3.7950947 -1.0218637 -0.48440671 8
-4.9058075 -1.3209331 -0.44518593 4
-10.201689 -2.7468972 -0.56258398 5
-10.214556 -2.7503617 -0.18643734 12
-3.8526306 -1.0373558 1.066785 8
-3.9331131 -1.0590264 0.93887359 5
-3.9906216 -1.0745111 0.80278653 7
-3.9391 -1.0606384 0.64454365 1
-19.332113 -5.2053466 2.4500332 20
-18.565519 -4.9989343 1.6799247 15
-19.130831 -5.1511497 1.0500331 16
-11.865542 -3.1949048 0.21350352 42
-1.0360969 -0.27549043 -0.28759041 227
-1.1298561 -0.30042034 -0.27050447 109
-1.1761804 -0.31273758 -0.23747623 62
-3.139837 -0.83485925 -0.51820236 120
-3.7886946 -1.0073857 -0.48318347 8
-4.8906784 -1.3003949 -0.44344011 23
-10.23922 -2.7225323 -0.56417924 5
-10.281122 -2.7336738 -0.18749464 23
-3.8652067 -1.0277296 1.069368 9
-3.9270036 -1.044161 0.93662751 6
-3.9844906 -1.0594463 0.80087966 6
-3.9805958 -1.0584108 0.65078616 1
-4.1248388 -1.0967638 0.52231741 10
-18.571505 -4.9380245 1.6790543 48
-19.359234 -5.1474762 1.0616766 16
-11.962485 -3.1807358 0.21506701 21
0.1 0.1 0.1 -1
-1.1025245 -0.28944758 -0.26374185 158
-1.1391842 -0.29907191 -0.22981571 144
-3.1328928 -0.82248348 -0.51662731 39
-3.8014405 -0.99799842 -0.48440671 8
-4.6249509 -1.2141958 -0.41899854 15
-10.296015 -2.7030296 -0.56683791 7
-10.608793 -2.7851441 -0.19330978 15
-3.8684165 -1.0155817 1.069368 6
-3.9396896 -1.0342932 0.93887359 8
-3.9877992 -1.0469235 0.80087966 5
-4.0698848 -1.0684736 0.66483194 8
-4.1186633 -1.0812794 0.52110273 1
-4.1047335 -1.0776224 0.37080204 1
-19.520189 -5.1246676 1.0696154 47
-12.088469 -3.1736054 0.21715167 23
0.1 0.1 0.1 -1
-1.160067 -0.30044577 -0.2772671 112
-1.216181 -0.31497878 -0.24513675 54
-3.135603 -0.81208992 -0.51662731 115
-3.7855132 -0.98041016 -0.48196024 8
-4.6096644 -1.1938571 -0.41725272 4
-116.00288 -30.043589 -6.3809147 -1
-10.685725 -2.7674961 -0.1945433 3
-112.22501 -29.065159 30.996174 -1
-3.9619644 -1.0261092 0.94336581 8
-4.000752 -1.0361549 0.80278653 5
-4.0638437 -1.052495 0.66327131 6
-115.30703 -29.863371 14.576301 -1
-4.1854353 -1.083986 0.37776545 1
-4.2051601 -1.0890945 0.230224 1
-12.215075 -3.1635828 0.21923633 51
0.1 0.1 0.1 -1
-1.1798832 -0.30162585 -0.2817755 126
0.1 0.1 0.1 -1
-3.1381388 -0.80223513 -0.51662731 30
-3.7885745 -0.96851283 -0.48196024 8
-4.6230435 -1.1818368 -0.41812563 13
-10.738943 -2.7453082 -0.59023464 29
-10.733114 -2.7438178 -0.19524817 28
-112.31577 -28.712452 30.996174 -1
-3.9746091 -1.0160708 0.94561195 35
-4.0039873 -1.023581 0.80278653 7
-4.0575604 -1.0372765 0.66171068 6
-4.1255598 -1.0546598 0.52110273 3
-4.2081232 -1.0757664 0.37950632 13
-4.2762847 -1.0931913 0.23392875 5
-4.3203878 -1.1044658 0.077479713 7
0.1 0.1 0.1 -1
-1.180825 -0.29791766 -0.2817755 90
-1.2371695 -0.31213316 -0.24896702 57
-3.1406436 -0.79237247 -0.51662731 114
-3.7915986 -0.95660591 -0.48196024 8
-4.6267338 -1.1673074 -0.41812563 7
-10.76688 -2.7164428 -0.5912981 52
-4.4110694 -1.1128961 -0.080178626 37
-112.40542 -28.359461 30.996174 -1
-16.015059 -4.0405388 3.8071549 82
-4.0452561 -1.0206028 0.81041396 12
-4.0799537 -1.0293568 0.66483194 8
-4.1288528 -1.0416939 0.52110273 3
-4.2018228 -1.0601039 0.37863588 9
-4.2700152 -1.0773087 0.23339951 6
-4.275363 -1.0786579 0.076611109 1
0.1 0.1 0.1 -1
-1.1344849 -0.28243825 -0.27050447 199
0.1 0.1 0.1 -1
-3.1431174 -0.78250194 -0.51662731 35
-3.794585 -0.94468957 -0.48196024 9
-4.6303782 -1.1527662 -0.41812563 11
-4.418673 -1.1000608 -0.24247476 1
-4.3078189 -1.0724628 -0.078240246 1
-3.5154362 -0.87519342 0.96863043 1
-19.450693 -4.8423915 4.6202464 106
-19.499205 -4.8544688 3.9033349 9
-115.0188 -28.634768 18.727659 -1
-4.141737 -1.0311155 0.52231741 4
-4.2147994 -1.049305 0.37950632 6
-4.2636886 -1.0614762 0.23287025 7
-4.3175397 -1.074883 0.077305995 10
0.1 0.1 0.1 -1
-1.2015963 -0.29514036 -0.28628391 101
-1.2581694 -0.30903605 -0.25279728 59
-3.1167898 -0.76555699 -0.51190203 125
-3.7782574 -0.928029 -0.47951373 9
-4.6243024 -1.1358377 -0.41725272 11
-4.4802928 -1.1004655 -0.24566522 6
-4.3888454 -1.0780038 -0.079649977 5
-3.4994047 -0.85953623 0.96346444 10
-19.465811 -4.7812614 4.6202464 20
-19.495293 -4.7885032 3.8995214 9
-19.530024 -4.7970338 3.1774597 9
-115.67319 -28.41206 14.576301 -1
-4.2277493 -1.0384349 0.38037673 8
-4.2767 -1.0504582 0.23339951 6
-4.3306055 -1.0636986 0.077479713 7
0.1 0.1 0.1 -1
-1.2025176 -0.29136398 -0.28628391 100
0.1 0.1 0.1 -1
-3.1479719 -0.76273781 -0.51662731 39
-3.7908001 -0.91849184 -0.48073697 8
-4.5794396 -1.1095753 -0.41288814 10
-4.4643178 -1.0816818 -0.24460174 4
-4.382493 -1.0618562 -0.079473764 3
-3.5020878 -0.84853834 0.96346444 16
-19.471264 -4.7177896 4.6180005 5
-19.491159 -4.7226105 3.8957076 10
-19.535398 -4.7333288 3.175899 10
-19.58305 -4.744875 2.4658241 6
-116.18282 -28.150515 10.445127 -1
-116.46201 -28.218163 6.351007 -1
-4.3339257 -1.0500884 0.077479713 5
0.1 0.1 0.1 -1
-1.1939014 -0.28552866 -0.28402969 166
-1.3077623 -0.31275919 -0.26237294 50
-3.0925951 -0.73961264 -0.50717682 134
-3.7645504 -0.90031481 -0.47706723 9
-4.5730228 -1.0936658 -0.41201523 15
-4.4577956 -1.0661086 -0.24406999 3
-116.69067 -27.907272 -2.1146011 -1
-3.476403 -0.8314026 0.95571536 8
-19.475698 -4.6577301 4.6157541 11
-19.495539 -4.6624751 3.8938007 10
-19.530142 -4.6707506 3.1727777 8
-19.606697 -4.6890588 2.4670389 16
-116.26583 -27.80567 10.445127 -1
-116.54523 -27.872488 6.351007 -1
-4.3759193 -1.0465273 0.078174599 114
0.1 0.1 0.1 -1
-1.2516358 -0.2954129 -0.29755491 95
0.1 0.1 0.1 -1
-2.9313872 -0.69187021 -0.48040038 67
-3.7768648 -0.89142102 -0.47829047 8
-4.5568566 -1.075516 -0.41026941 6
-4.4706583 -1.0551711 -0.24460174 4
-4.4081793 -1.0404248 -0.079826191 2
-3.4788544 -0.82108426 0.95571536 9
-19.470465 -4.5954475 4.6112618 7
-19.499733 -4.602355 3.8918939 11
-19.534302 -4.6105142 3.1712172 11
-19.591541 -4.6240239 2.4633946 6
-19.633696 -4.6339731 1.7626153 10
-19.651718 -4.638227 1.0701447 10
-13.137015 -3.1006174 0.2345238 11
0.1 0.1 0.1 -1
-1.2241899 -0.28442749 -0.29079232 150
0.1 0.1 0.1 -1
-2.8760707 -0.66822439 -0.47094989 47
-3.7702858 -0.8759858 -0.47706723 8
-4.5605836 -1.059603 -0.41026941 10
-4.5034943 -1.0463389 -0.24619697 4
-116.86845 -27.153141 -2.1146011 -1
-3.4816995 -0.80893576 0.95571536 12
-113.89998 -26.463448 26.95331 -1
-19.506117 -4.5320387 3.889987 11
-19.540655 -4.5400629 3.1696565 10
-19.597895 -4.5533619 2.4621801 7
-19.62064 -4.5586467 1.760004 5
-19.638609 -4.5628214 1.0685569 9
-13.196454 -3.0660555 0.23539241 31
0.1 0.1 0.1 -1
-1.2915545 -0.29580545 -0.30657175 88
0.1 0.1 0.1 -1
-2.849278 -0.65257174 -0.46622464 112
-3.7730193 -0.86413676 -0.47706723 7
-4.5541792 -1.0430464 -0.4093965 8
-116.80585 -26.752113 -6.3809147 -1
-116.95318 -26.785854 -2.1146011 -1
-3.4936404 -0.80015045 0.95829839 11
-3.5714533 -0.817972 0.84453702 1
-19.510691 -4.4685445 3.8880801 10
-19.535566 -4.4742417 3.1665351 11
-19.602427 -4.4895549 2.4609654 6
-19.634865 -4.4969845 1.760004 5
-19.66258 -4.5033321 1.0690862 7
-116.95369 -26.785971 2.084656 -1
0.1 0.1 0.1 -1
-1.2449598 -0.28102049 -0.29530072 186
-2.6998739 -0.60943323 -0.5400669 21
-2.8513141 -0.64361727 -0.46622464 18
-3.7757154 -0.85227925 -0.47706723 7
-4.6740417 -1.0550554 -0.41987145 36
-8.1238079 -1.8337592 -0.44347358 10
-8.1535606 -1.8404751 -0.14731722 10
-3.618643 -0.81682384 0.99187756 17
-3.4789522 -0.78529185 0.82207596 52
-19.534208 -4.4093895 3.889987 18
-19.530254 -4.4084973 3.163414 11
-19.597071 -4.4235792 2.4585359 6
-19.629461 -4.4308906 1.7582632 6
-19.67663 -4.4415379 1.0690862 8
-15.975587 -3.6061141 0.28455555 4
0.1 0.1 0.1 -1
-1.312408 -0.29191524 -0.31108016 77
-2.7017751 -0.60094833 -0.5400669 16
0.1 0.1 0.1 -1
-3.7783742 -0.84041327 -0.47706723 9
-4.7065058 -1.046855 -0.42249018 1
-8.129529 -1.8082285 -0.44347358 7
-8.1495428 -1.81268 -0.14714099 15
-113.16223 -25.170361 30.996174 -1
-3.4528658 -0.76801139 0.8153376 9
-3.9862516 -0.88665086 0.79325223 79
-19.55365 -4.3492641 3.1649745 25
-19.591492 -4.3576813 2.4561067 6
-19.63356 -4.3670378 1.7573928 6
-19.670992 -4.3753638 1.0680276 7
-15.996596 -3.5580785 0.28472927 11
0.1 0.1 0.1 -1
-1.2942849 -0.28361988 -0.30657175 140
-2.713237 -0.59455842 -0.54198205 12
-2.8456554 -0.62357557 -0.46464956 11
-3.771301 -0.82641459 -0.47584397 8
-116.77119 -25.588362 -10.474963 -1
-8.13517 -1.7826799 -0.44347358 9
-8.1551971 -1.7870686 -0.14714099 3
-15.570602 -3.412025 4.2619739 99
-3.4552617 -0.75716013 0.8153376 105
-3.8739495 -0.84890819 0.77036995 1
-19.798782 -4.3385563 3.2024298 54
-19.731133 -4.3237319 2.4718976 13
-19.637451 -4.3032036 1.7565223 8
-19.684641 -4.3135443 1.0680276 7
-15.997929 -3.505666 0.28455555 10
0.1 0.1 0.1 -1
-1.3237395 -0.28571898 -0.31333435 106
-2.7054977 -0.58396083 -0.5400669 17
-2.8186417 -0.60838211 -0.45992431 10
-3.7738786 -0.81456262 -0.47584397 8
-4.7519407 -1.0256698 -0.42598185 6
-8.1407299 -1.7571138 -0.44347358 10
-8.1607704 -1.7614396 -0.14714099 13
-15.86454 -3.4242389 4.3394647 42
-3.4385731 -0.74218953 0.81084538 50
-3.9533617 -0.85330266 0.7856248 4
-20.044037 -4.3263512 3.2398851 8
-19.987181 -4.3140788 2.502265 15
-19.865105 -4.2877297 1.7756717 24
-19.727377 -4.2580028 1.0696154 14
-15.99909 -3.4532804 0.28438184 7
0.1 0.1 0.1 -1
-1.3151009 -0.27953333 -0.31108016 148
-2.6977184 -0.57341778 -0.5381518 12
-2.820539 -0.59952408 -0.45992431 14
-3.766711 -0.80063915 -0.47462073 8
-116.92966 -24.854166 -10.474963 -1
-8.1364422 -1.7294542 -0.44294184 5
-8.1369247 -1.7295567 -0.14661235 8
-16.064211 -3.4145534 4.3911247 129
-3.4504192 -0.73340923 0.81309152 58
-3.9656248 -0.84291959 0.78753167 6
-23.970488 -5.0950842 3.8719437 11
-20.194817 -4.2925406 2.5265586 15
-20.083107 -4.2687964 1.7939507 10
-19.984852 -4.2479115 1.0828466 16
-16.00008 -3.4009221 0.28420812 18
0.1 0.1 0.1 -1
-1.3636527 -0.28537869 -0.32235116 84
-2.6898997 -0.56292933 -0.53623664 14
-2.8320744 -0.59268296 -0.46149939 29
-3.7692077 -0.78880173 -0.47462073 7
-8.4830198 -1.7752857 -0.75943482 8
-8.1418352 -1.7038842 -0.44294184 12
-8.1423178 -1.7039853 -0.14661235 6
-16.245062 -3.399689 4.4376192 121
-3.471782 -0.72655791 0.81758374 58
-115.30034 -24.129503 22.882277 -1
-4.0025635 -0.83763731 0.64610428 1
-24.191549 -5.0626917 3.0245824 18
-24.084501 -5.0402889 2.1499555 68
-20.271776 -4.2423806 1.0976657 19
-117.43779 -24.576818 2.084656 -1
0.1 0.1 0.1 -1
-1.3359158 -0.27519619 -0.31558856 168
-2.701268 -0.55645627 -0.5381518 16
-2.8629386 -0.58976012 -0.46622464 1
-3.7619464 -0.77495408 -0.47339749 7
-8.488555 -1.7486268 -0.75943482 9
-8.1373672 -1.6762829 -0.44241011 10
-8.1476307 -1.6783971 -0.14661235 3
-3.9740269 -0.81864232 1.0848662 174
-114.52904 -23.592772 26.95331 -1
-3.4131942 -0.70311177 0.676934 6
-4.0148492 -0.82705164 0.6476649 1
-24.547598 -5.0567603 3.0670965 22
-24.383175 -5.0228896 2.1751978 10
-24.177691 -4.9805603 1.3083074 28
-8.8723383 -1.8276856 0.15739153 10
0.1 0.1 0.1 -1
-1.4036124 -0.28454784 -0.331368 67
-2.6933837 -0.54601723 -0.53623664 13
-2.8454206 -0.57683897 -0.46307448 23
-3.7546353 -0.7611599 -0.47217423 7
-8.5037699 -1.7239299 -0.76030773 9
-8.1328068 -1.6487262 -0.44187835 9
-8.1332655 -1.6488192 -0.14625992 13
-3.9671111 -0.80423409 1.0822831 132
-114.60259 -23.232853 26.95331 -1
-3.4442487 -0.69823658 0.68265456 12
-116.16659 -23.549915 18.727659 -1
-24.767653 -5.0210319 3.0926051 23
-24.721027 -5.0115795 2.203922 21
-24.496613 -4.966085 1.3247142 25
-8.8780365 -1.7998033 0.15739153 46
-1.2976581 -0.25882664 -0.35495391 228
-1.3758361 -0.27441978 -0.32460538 227
-2.704711 -0.53947282 -0.5381518 13
-2.8375344 -0.56596535 -0.46149939 21
-3.7570081 -0.74936062 -0.47217423 7
-8.5091438 -1.697206 -0.76030773 7
-8.1379461 -1.6231682 -0.44187835 13
-8.1482105 -1.6252154 -0.14643613 6
-25.295658 -5.0453892 6.8966489 170
-4.0136256 -0.80054462 0.94336581 96
-3.4175446 -0.68165231 0.676934 12
-4.0296531 -0.80374151 0.64922553 1
-4.0786352 -0.81351125 0.50895584 20
-24.71711 -4.9299941 2.2021811 15
-24.717749 -4.9301214 1.3358284 40
-8.8738422 -1.7699475 0.15721782 23
0.1 0.1 0.1 -1
-1.4531744 -0.28510147 -0.342639 66
-2.68713 -0.5271939 -0.53432155 14
-2.8392985 -0.5570482 -0.46149939 24
-3.769083 -0.7394647 -0.47339749 9
-8.5046577 -1.6685475 -0.75943482 7
-8.1528044 -1.5995166 -0.44241011 8
-8.2023325 -1.6092337 -0.14731722 10
-113.75903 -22.318634 30.996174 -1
-24.641769 -4.8345227 5.7882233 130
-3.4100363 -0.6690225 0.67502713 15
-4.0515437 -0.79488128 0.65234685 17
-4.0324693 -0.79113901 0.50288236 1
-25.182158 -4.9405432 2.2422209 13
-3.9882636 -0.78246623 0.21540499 18
-8.8597355 -1.738211 0.15687037 62
-1.2992587 -0.25066817 -0.35495391 227
-1.3966656 -0.26946104 -0.32911378 223
-2.7080472 -0.52246809 -0.5381518 12
-2.8701236 -0.55373776 -0.46622464 14
-3.7518971 -0.72385985 -0.47095099 7
-8.5000763 -1.6399341 -0.75856191 10
-8.3931103 -1.6192968 -0.45517191 8
-8.5116873 -1.6421741 -0.15277994 7
-24.729259 -4.7710576 6.7339187 154
-24.618563 -4.7497005 5.7792387 66
-3.4410374 -0.66388518 0.68074769 22
-3.3848166 -0.65303838 0.54466277 6
-4.1129045 -0.7935096 0.51259989 5
-25.197556 -4.8614068 2.2422209 4
-3.9907022 -0.76993287 0.21540499 14
-4.0055175 -0.77279121 0.070878305 12
-1.3379972 -0.25378478 -0.36531755 228
-1.4932249 -0.28322759 -0.35165581 60
-2.6807463 -0.50847089 -0.53240639 11
-2.8815513 -0.54655856 -0.46779972 12
-3.7639039 -0.71391886 -0.47217423 8
-8.5051861 -1.6132222 -0.75856191 9
-8.5158873 -1.6152518 -0.46155283 6
-8.2024584 -1.5558023 -0.14714099 6
-24.839039 -4.7113476 6.7597489 124
-24.633364 -4.6723361 5.7792387 148
-3.4238172 -0.64941287 0.676934 31
-3.3674426 -0.63872004 0.54154152 5
-117.02494 -22.19672 14.576301 -1
-25.202915 -4.7803659 2.2413504 17
-4.0029125 -0.75925285 0.21593423 11
-3.9981022 -0.75834048 0.070704587 1
-1.3388314 -0.24934641 -0.36531755 228
0.1 0.1 0.1 -1
-2.6920667 -0.50137544 -0.53432155 12
-2.9221807 -0.54423231 -0.47410005 7
-3.7564933 -0.69961619 -0.47095099 7
-8.5202827 -1.5868331 -0.75943482 8
-8.1775999 -1.5230112 -0.44294184 5
-4.010407 -0.74690551 -0.071896441 9
-25.33889 -4.7191615 6.8914828 62
-24.677462 -4.5959754 5.7859774 125
-25.014273 -4.6587043 4.9425716 15
-3.3792527 -0.62935817 0.54310215 51
-4.0691524 -0.75784636 0.50652641 1
-4.1035361 -0.7642501 0.36470905 1
-4.0054083 -0.74597454 0.21593423 8
-4.0399127 -0.75240076 0.071399473 31
-1.3491089 -0.2468777 -0.36790845 226
-1.5333565 -0.28059375 -0.36067262 64
-2.683974 -0.49114889 -0.53240639 13
-3.0501564 -0.55815774 -0.49457613 13
-3.74891 -0.6860249 -0.46972772 7
-8.5350246 -1.5618513 -0.76030773 1
-8.1332302 -1.4883256 -0.44028312 17
-8.0648079 -1.4758046 -0.14449775 2
-25.505636 -4.667357 6.9328113 42
-24.864313 -4.5499992 5.826407 17
-25.019129 -4.5783296 4.9406648 13
-3.3714969 -0.61696088 0.54154152 17
-117.16584 -21.440548 14.576301 -1
-117.59189 -21.518513 10.445127 -1
-4.0175548 -0.73518503 0.21646349 13
-4.0324216 -0.73790556 0.071225747 12
-1.3783964 -0.24776429 -0.37568116 226
-1.4862858 -0.26715723 -0.34940162 226
-2.6855037 -0.4827145 -0.53240639 12
-3.100492 -0.5573079 -0.50245154 7
-3.7510467 -0.67424399 -0.46972772 7
-117.65634 -21.14852 -10.474963 -1
-8.1182089 -1.4592336 -0.43921965 12
-8.0890856 -1.4539988 -0.14485018 22
-25.49165 -4.5820785 6.9250622 40
-25.214163 -4.5322008 5.9050207 43
-25.023727 -4.4979706 4.9387579 14
-3.3636971 -0.60461855 0.53998089 14
-4.0933723 -0.73577642 0.50895584 5
-4.1376719 -0.74373913 0.36732033 2
-4.0198445 -0.72255993 0.21646349 10
-4.0544014 -0.72877139 0.07157319 22
-1.4172139 -0.25014812 -0.38604477 227
0.1 0.1 0.1 -1
-2.6580105 -0.46915731 -0.52666098 11
-3.1022274 -0.54756469 -0.50245154 34
-3.7531464 -0.66245639 -0.46972772 7
-8.8585958 -1.5636036 -0.78824097 4
-8.1129198 -1.4319867 -0.43868789 13
-8.0739212 -1.4251032 -0.14449775 10
-25.496405 -4.5002923 6.9224792 39
-25.477776 -4.4970045 5.9634199 43
-25.008734 -4.4142151 4.9330373 13
-3.3558526 -0.59233129 0.5384202 24
-3.3527749 -0.59178805 0.41663924 12
-4.1596088 -0.73419982 0.36906117 3
-4.1401024 -0.73075682 0.2228145 12
-4.0862098 -0.72124439 0.072094351 57
-1.4275095 -0.24734353 -0.38863569 225
-2.6686835 -0.46240082 -0.62666869 129
-2.6884837 -0.46583158 -0.53240639 11
-3.0942023 -0.53613013 -0.50087649 7
-3.7454298 -0.64896786 -0.46850449 8
-8.9125423 -1.5442696 -0.79260558 4
-8.1173782 -1.4064921 -0.43868789 22
-8.0586548 -1.3963172 -0.14414531 12
-25.491379 -4.4168725 6.9173131 38
-25.558989 -4.428587 5.9791427 34
-24.99346 -4.3305984 4.9273167 13
-3.377162 -0.58515835 0.54154152 28
-3.3252766 -0.57616824 0.41299519 5
-4.1717105 -0.72282922 0.36993161 26
-4.2309322 -0.73309046 0.22757775 6
-8.0586901 -1.3963233 0.14210406 5
-1.4758888 -0.2509529 -0.4015902 226
-2.6797278 -0.4556478 -0.62892294 1
-2.6705818 -0.45409265 -0.52857614 12
-3.0958712 -0.52640676 -0.50087649 20
-3.7474501 -0.63719803 -0.46850449 7
-9.0744839 -1.5429808 -0.8065722 9
-8.1217566 -1.3809838 -0.43868789 16
-8.0630016 -1.3709934 -0.14414531 17
-25.476557 -4.3319092 6.909564 36
-25.553562 -4.3450027 5.9746504 28
-25.09404 -4.2668676 4.9444785 36
-116.85246 -19.869019 18.727659 -1
-117.42601 -19.966543 14.576301 -1
-4.1739607 -0.70971984 0.36993161 6
-4.2627482 -0.72481686 0.22916549 12
-8.0827513 -1.3743514 0.14245149 2
0.1 0.1 0.1 -1
-2.6907558 -0.44882992 -0.63117713 188
-2.6623139 -0.44408569 -0.52666098 13
-3.087769 -0.51505345 -0.49930137 10
-3.7494335 -0.62542194 -0.46850449 8
-117.91281 -19.668375 -10.474963 -1
-8.1162052 -1.3538188 -0.43815616 21
-8.0672693 -1.3456559 -0.14414531 13
-25.480513 -4.2502613 6.906981 38
-25.557474 -4.2630992 5.972404 39
-25.543045 -4.2606921 5.0302873 19
-25.097603 -4.1863904 4.0202045 58
-3.3288312 -0.5552637 0.41299519 1
-117.91538 -19.668804 10.445127 -1
-4.2453046 -0.70813549 0.22810701 6
-118.34676 -19.740761 2.084656 -1
0.1 0.1 0.1 -1
-2.6729231 -0.43722892 -0.62666869 94
-2.6636961 -0.43571961 -0.52666098 12
-3.0893719 -0.50535041 -0.49930137 14
-3.7807639 -0.61844629 -0.47217423 17
-9.3887653 -1.5357867 -0.83363253 1
-8.1105642 -1.3267022 -0.43762442 20
-8.0714569 -1.3203052 -0.14414531 29
-25.484205 -4.1686316 6.904398 38
-25.561125 -4.1812139 5.9701581 40
-25.604742 -4.1883488 5.0398211 13
-25.471304 -4.1665215 4.0779481 22
-117.54915 -19.228346 14.576301 -1
-25.197834 -4.121788 2.2309053 4
-4.2475085 -0.69479495 0.22810701 5
-4.2725625 -0.69889325 0.075221337 1
-2.6893494 -0.43124542 -0.73063511 226
-2.6839032 -0.43037209 -0.62892294 138
-2.6650517 -0.42734921 -0.52666098 11
-3.0909443 -0.49564239 -0.49930137 13
-3.7238898 -0.59713715 -0.46483472 13
-9.53125 -1.5283651 -0.84585327 77
-8.1146917 -1.3012156 -0.43762442 22
-8.0656929 -1.2933586 -0.14396909 15
-25.487637 -4.0870204 6.9018149 44
-25.564512 -4.0993481 5.9679122 38
-25.598389 -4.1047802 5.0360074 14
-25.659821 -4.1146307 4.1060395 5
-3.3224535 -0.53276563 0.41178048 3
-3.2853529 -0.52681643 0.29072273 3
-4.24967 -0.68144763 0.22810701 5
-118.46846 -18.99678 2.084656 -1
-2.7002323 -0.42429373 -0.733226 92
-2.6756175 -0.42042592 -0.62666869 110
-2.6663811 -0.41897461 -0.52666098 11
-3.0827308 -0.48439658 -0.49772629 14
-3.7355521 -0.58697587 -0.46605799 14
-118.09294 -18.556215 -10.474963 -1
-8.1187401 -1.2757163 -0.43762442 22
-8.0697155 -1.268013 -0.14396909 27
-25.481264 -4.0039296 6.8966489 38
-25.548386 -4.0144768 5.9611735 39
-25.611158 -4.0243402 5.0360074 15
-25.672619 -4.033998 4.1060395 24
-3.324111 -0.52232522 0.41178048 4
-3.2869918 -0.51649261 0.29072273 2
-4.23206 -0.66499335 0.2270485 7
-4.2768693 -0.67203432 0.075221337 2
-2.6920059 -0.41433933 -0.73063511 50
-2.6769249 -0.41201815 -0.62666869 100
-2.6579835 -0.4091028 -0.52474588 11
-3.0842373 -0.47470951 -0.49772629 14
-3.7275684 -0.57372761 -0.46483472 13
-10.387411 -1.5987755 -0.92092389 12
-8.1227074 -1.2502042 -0.43762442 19
-8.0736599 -1.242655 -0.14396909 39
-25.465073 -3.9194493 6.8888998 40
-25.551239 -3.9327118 5.9589276 36
-25.594568 -3.9393806 5.0302873 15
-25.636354 -3.9458122 4.0982361 16
-3.3257353 -0.51187962 0.41178048 11
-3.2787521 -0.50464821 0.28985229 5
-4.2439981 -0.6532138 0.22757775 10
-4.3086057 -0.66315788 0.075742505 11
-2.6741929 -0.40300152 -0.72545326 61
-2.6685724 -0.40215451 -0.6244145 48
-2.6495504 -0.39928791 -0.52283072 12
-3.0759485 -0.46354619 -0.49615121 12
-3.7195382 -0.56053531 -0.46361148 13
-118.2072 -17.813854 -10.474963 -1
-8.1265945 -1.2246798 -0.43762442 17
-4.3403096 -0.65408576 -0.077359162 9
-25.477259 -3.8394294 6.8888998 59
-25.553833 -3.8509691 5.9566813 44
-25.606817 -3.8589537 5.0302873 14
-25.638857 -3.8637819 4.0966759 16
-25.745071 -3.8797886 3.1861362 23
-3.2803214 -0.49434525 0.28985229 3
-9.2227707 -1.3898739 0.49432003 17
-4.3007812 -0.64812881 0.07556878 7
-2.6754458 -0.39459834 -0.72545326 53
-2.6698225 -0.39376897 -0.6244145 60
-2.6605015 -0.39239424 -0.52474588 11
-3.0871592 -0.45532143 -0.49772629 12
-3.7212808 -0.54884732 -0.46361148 13
-10.180437 -1.5015006 -0.90171975 12
-8.1205235 -1.1976864 -0.43709266 18
-4.3621259 -0.64336479 -0.07771159 51
-25.479639 -3.7579618 6.8863168 71
-25.546524 -3.7678268 5.9521894 90
-25.599392 -3.775624 5.0264735 17
-25.641096 -3.781775 4.0951152 16
-25.708035 -3.7916474 3.1800628 8
-3.2917137 -0.48549095 0.29072273 20
-118.54935 -17.484705 6.351007 -1
-4.3027959 -0.63461429 0.07556878 7
-2.6766722 -0.38619122 -0.72545326 55
-2.6614037 -0.38398829 -0.62216032 64
-2.6520069 -0.38263252 -0.52283072 10
-3.0690262 -0.44280022 -0.49457613 11
-3.7131636 -0.53573656 -0.46238825 16
-10.263982 -1.480891 -0.90870309 5
-8.1242456 -1.1721691 -0.43709266 21
-4.3542295 -0.62822986 -0.077535376 32
-25.472195 -3.6751375 6.8811507 39
-25.538946 -3.6847684 5.9476972 67
-25.591694 -3.692379 5.0226598 21
-25.643074 -3.6997921 4.0935545 19
-25.709995 -3.7094474 3.1788483 13
-3.2932227 -0.47514737 0.29072273 10
-3.251718 -0.46915907 0.17412344 21
-4.3146644 -0.62252134 0.075742505 20
-2.677938 -0.37731293 -0.72545326 54
-2.6723096 -0.37651992 -0.6244145 52
-2.6435423 -0.37246668 -0.52091563 11
-3.0704777 -0.43262053 -0.49457613 12
-3.7149196 -0.52342033 -0.46238825 13
-10.406938 -1.4663043 -0.92092389 17
-4.4101305 -0.62137336 -0.23715733 41
-4.3463883 -0.61239225 -0.077359162 23
-25.465111 -3.5879529 6.8759847 45
-25.531727 -3.5973389 5.9432049 22
-25.594078 -3.6061239 5.0207529 16
-25.62586 -3.6106019 4.0888724 25
-25.702496 -3.6213999 3.1764188 10
-3.2947803 -0.46422401 0.29072273 11
-3.2433677 -0.45698017 0.17359419 11
-4.3266058 -0.60960495 0.075916223 74
-2.6695421 -0.36758062 -0.72286236 59
-2.6638279 -0.36679381 -0.62216032 58
-2.6544225 -0.36549875 -0.52283072 12
-3.0816047 -0.42431927 -0.49615121 10
-3.7067137 -0.5103932 -0.46116498 11
-10.589129 -1.4580624 -0.93663633 22
-4.3131356 -0.59389406 -0.23183991 1
-4.3383856 -0.5973708 -0.077182941 38
-25.457115 -3.5052986 6.8708186 38
-25.533249 -3.5157819 5.9409585 62
-25.585831 -3.5230219 5.0169392 16
-25.646862 -3.5314255 4.0904331 15
-25.69408 -3.5379274 3.1739893 13
-3.2863533 -0.452512 0.28985229 10
-3.2447875 -0.44678861 0.17359419 13
-8.1518431 -1.1224619 0.14297266 15
-2.6706836 -0.35919219 -0.72286236 55
-2.6746228 -0.35972199 -0.6244145 58
-2.6555576 -0.35715783 -0.52283072 11
-3.0731354 -0.41331974 -0.49457613 10
-3.6984625 -0.49742278 -0.45994174 11
-10.564039 -1.420805 -0.93401754 10
-4.4040508 -0.59232056 -0.2366256 4
-4.340241 -0.58373845 -0.077182941 5
-25.458427 -3.4240179 6.8682356 38
-25.53451 -3.4342506 5.9387126 33
-25.587044 -3.4413161 5.0150323 13
-25.628462 -3.4468865 4.0857511 12
-25.69523 -3.4558666 3.1727748 10
-3.2877588 -0.4421854 0.28985229 14
-3.2362781 -0.43526152 0.17306493 8
-8.1652384 -1.0981795 0.14314638 21
-2.6717989 -0.35080025 -0.72286236 45
-2.66608 -0.35004935 -0.62216032 62
-2.6469352 -0.3475357 -0.52091563 12
-3.0548365 -0.40109208 -0.49142596 11
-3.700007 -0.48580128 -0.45994174 9
-10.558574 -1.3863132 -0.93314463 8
-4.4256916 -0.58108181 -0.23768908 4
-4.1933532 -0.55057633 -0.074539691 6
-25.45948 -3.3427634 6.8656526 39
-25.535511 -3.3527462 5.9364662 54
-25.578262 -3.3583593 5.0112185 13
-25.639164 -3.3663554 4.0857511 15
-25.696119 -3.3738337 3.17156 10
-3.3088863 -0.43444815 0.29159316 34
-3.2277286 -0.42379236 0.17253569 9
-8.1587343 -1.0712206 0.14297266 37
-2.6633074 -0.34117755 -0.72027147 60
-2.6671665 -0.34167191 -0.62216032 45
-2.6480138 -0.33921841 -0.52091563 12
-3.0756717 -0.39400262 -0.49457613 11
-3.7015147 -0.47417498 -0.45994174 10
-10.552996 -1.3518699 -0.93227172 12
-4.1402531 -0.53037864 -0.22226854 4
-4.1653099 -0.53358847 -0.074011043 6
-25.450691 -3.2603087 6.8604865 35
-25.526588 -3.2700312 5.9319744 42
-25.578949 -3.2767391 5.0093117 13
-25.630018 -3.2832811 4.0826297 14
-25.696747 -3.2918291 3.1703453 9
-25.750662 -3.2987359 2.2683337 8
-3.2488542 -0.41618779 0.17359419 10
-3.213253 -0.4116272 0.056285713 1
-2.6643662 -0.33280885 -0.72027147 49
-2.6682267 -0.33329108 -0.62216032 47
-2.6393273 -0.32968122 -0.51900047 11
-3.0670953 -0.38311419 -0.49300104 11
-3.6931379 -0.46131384 -0.45871848 9
-4.1220493 -0.5148896 -0.36400497 1
-4.1418986 -0.51736903 -0.22226854 4
-119.05616 -14.871433 -2.1146011 -1
-25.451223 -3.1791396 6.8579035 38
-25.527065 -3.1886134 5.929728 34
-25.579376 -3.1951478 5.0074048 13
-25.620604 -3.2002974 4.0795088 15
-25.697111 -3.2098539 3.1691306 8
-25.741127 -3.2153521 2.2665927 9
-3.2501454 -0.40597919 0.17359419 15
-119.05668 -14.871498 2.084656 -1
-2.6749864 -0.32560393 -0.72286236 45
-2.6692605 -0.32490698 -0.62216032 45
-2.6403501 -0.32138792 -0.51900047 13
-3.058481 -0.37228352 -0.49142596 12
-3.6945689 -0.44970924 -0.45871848 11
-4.1533127 -0.50554836 -0.36662373 50
-4.1435037 -0.50435436 -0.22226854 5
-4.1983557 -0.51103103 -0.074539691 15
-25.441904 -3.0968323 6.8527374 37
-25.517611 -3.1060472 5.9252357 36
-25.569799 -3.1123998 5.0035911 14
-25.630531 -3.119792 4.0795088 14
-25.697216 -3.1279092 3.1679158 8
-25.741213 -3.1332645 2.2657223 9
-3.251405 -0.39576659 0.17359419 9
-3.1959255 -0.38901353 0.05593827 8
-2.6568134 -0.31492478 -0.71768057 52
-2.6605933 -0.31537282 -0.61990607 48
-2.6413467 -0.31309146 -0.51900047 11
-3.0596354 -0.36267322 -0.49142596 12
-3.6861074 -0.43693194 -0.45749524 10
-4.1548805 -0.49249786 -0.36662373 17
-4.1450677 -0.49133471 -0.22226854 5
-3.2765493 -0.38838506 -0.058151532 3
-25.432322 -3.0146146 6.8475714 40
-25.507889 -3.023572 5.9207435 34
-25.569702 -3.030899 5.0016842 14
-25.620588 -3.0369308 4.0763874 14
-25.677345 -3.0436585 3.1642718 8
-25.741037 -3.0512083 2.2648518 10
-3.2625487 -0.38672552 0.17412344 11
-3.2070608 -0.38014823 0.056111991 11
-2.6577895 -0.30657661 -0.71768057 48
-2.6712494 -0.30812919 -0.62216032 43
-2.6520674 -0.30591658 -0.52091563 12
-3.0509496 -0.3519277 -0.48985088 14
-3.667743 -0.42307496 -0.45504874 11
-4.1860962 -0.48286709 -0.36924246 9
-119.04089 -13.731393 -6.3809147 -1
-3.2678206 -0.37694386 -0.057975315 4
-25.441666 -2.9347019 6.8475714 41
-25.526943 -2.9445386 5.9229898 41
-25.569347 -2.9494298 4.9997773 13
-25.630003 -2.9564264 4.0763874 13
-25.67692 -2.9618382 3.1630571 8
-25.740599 -2.9691839 2.2639813 11
-3.2538273 -0.3753297 0.17359419 15
-3.1983066 -0.36892536 0.05593827 10
-2.6683378 -0.29930204 -0.72027147 51
-2.6625223 -0.29864973 -0.61990607 51
-2.6432617 -0.2964893 -0.51900047 11
-3.0422266 -0.34124038 -0.4882758 11
-3.669054 -0.41155034 -0.45504874 11
-118.79694 -13.325212 -10.474963 -1
-3.3045654 -0.37066641 -0.17707039 41
-3.2193081 -0.36110327 -0.057094231 12
-25.421959 -2.8515296 6.8398223 38
-25.507015 -2.8610702 5.9162517 38
-25.568731 -2.8679926 4.9978704 12
-25.619532 -2.8736908 4.073266 15
-25.676233 -2.8800511 3.1618426 9
-25.739901 -2.8871925 2.2631111 9
-10.588643 -1.1877066 0.56471038 74
-3.1994498 -0.35887581 0.05593827 14
-2.6500616 -0.28882483 -0.71508968 49
-2.6634474 -0.29028371 -0.61990607 60
-2.6441801 -0.28818381 -0.51900047 11
-3.0531006 -0.33275121 -0.48985088 11
-3.6505959 -0.39787102 -0.45260224 12
-3.3472764 -0.36481285 -0.29504481 6
-3.2858593 -0.35811913 -0.1760069 30
-3.1508496 -0.34340468 -0.055860713 1
-25.421188 -2.7706034 6.8372393 41
-25.515879 -2.7809236 5.9162517 46
-25.558098 -2.7855251 4.9940567 14
-25.608795 -2.7910504 4.0701447 14
-25.665419 -2.7972219 3.1594131 9
-25.738939 -2.8052347 2.2622406 9
-10.612176 -1.1565995 0.5657689 34
-3.2005615 -0.34882268 0.05593827 46
-2.6605608 -0.28151429 -0.71768057 50
-2.6643462 -0.28191483 -0.61990607 51
-2.6450725 -0.27987546 -0.51900047 12
-3.0344901 -0.32107979 -0.48670071 9
-3.6616976 -0.3874447 -0.4538255 12
-3.30878 -0.35010245 -0.29155314 17
-3.2770379 -0.34674379 -0.17547517 30
-3.1817417 -0.3366605 -0.056389365 77
-25.410553 -2.688694 6.8320737 40
-25.495417 -2.6976736 5.909513 47
-25.566723 -2.7052183 4.9940567 12
-25.587969 -2.7074664 4.0654631 13
-25.654339 -2.714489 3.1569836 9
-25.727812 -2.7222631 2.2604997 10
-10.645549 -1.1264069 0.56735665 18
-3.2016416 -0.3387661 0.05593827 44
-2.6710403 -0.27414063 -0.72027147 49
-2.6555269 -0.27254844 -0.61765188 53
-2.6264114 -0.26956019 -0.51517022 11
-3.0453074 -0.31255335 -0.4882758 21
-3.6431506 -0.3739126 -0.451379 17
-3.3098636 -0.33970588 -0.29155314 12
-3.2582438 -0.33440793 -0.17441167 34
-3.152945 -0.32360065 -0.055860713 25
-25.428484 -2.6098375 6.8346562 38
-25.503767 -2.617564 5.909513 36
-25.545799 -2.6218781 4.9883361 12
-25.606174 -2.6280746 4.0670238 14
-25.662741 -2.6338801 3.1569836 9
-25.716417 -2.6393893 2.2587588 9
-10.668902 -1.0949966 0.56841511 22
-3.1927438 -0.32768539 0.055764548 10
-2.6622772 -0.26479205 -0.71768057 45
-2.6563702 -0.26420453 -0.61765188 49
-2.637012 -0.26227915 -0.51708531 11
-3.0462742 -0.30298468 -0.4882758 9
-3.3875268 -0.33692592 -0.4195745 50
-3.3010015 -0.32832006 -0.29068023 15
-3.2394044 -0.32219356 -0.17334819 36
-3.1539462 -0.31369379 -0.055860713 35
-25.426945 -2.5289826 6.8320737 54
-25.502167 -2.5364645 5.9072671 45
-25.553909 -2.5416107 4.9883361 12
-25.663448 -2.5525055 4.0748267 28
-25.680765 -2.5542278 3.1581984 12
-25.71467 -2.5576 2.2578886 8
-10.67229 -1.0614738 0.56841511 12
-3.2037067 -0.31864303 0.05593827 21
-2.663096 -0.25642696 -0.71768057 55
-2.6668847 -0.2567918 -0.61990607 48
-2.6475928 -0.25493419 -0.51900047 11
-3.0275517 -0.29152006 -0.48512563 25
-3.3589311 -0.32342827 -0.41590476 27
-3.2921007 -0.31699324 -0.28980732 36
-3.2304609 -0.31105801 -0.17281644 31
-3.154916 -0.30378386 -0.055860713 35
-115.39401 -11.11118 30.996174 -1
-25.51001 -2.4563346 5.9072671 68
-25.551998 -2.4603775 4.9864292 16
-26.035126 -2.5068974 4.1325703 35
-25.846746 -2.4887586 3.1776335 52
-25.762241 -2.4806218 2.2613702 21
-10.725272 -1.0327263 0.57106137 8
-3.2146444 -0.30953506 0.056111991 9
-2.6446545 -0.24626832 -0.71249878 48
-2.648277 -0.24660565 -0.61539769 53
-2.6288352 -0.24479523 -0.51517022 12
-2.6548123 -0.2472142 -0.42527246 8
-3.3401661 -0.31103384 -0.41345826 36
-3.2930803 -0.30664927 -0.28980732 22
-3.1319938 -0.29164898 -0.16749902 1
-3.1359441 -0.29201683 -0.055508282 31
-2.7221854 -0.25348791 0.73099309 1
-116.43012 -10.841888 26.95331 -1
-25.549826 -2.3791814 4.9845223 44
-26.062542 -2.4269249 4.1356916 15
-26.081751 -2.4287138 3.2055714 42
-26.136915 -2.4338508 2.293576 59
-119.31563 -11.110585 6.351007 -1
-3.2056458 -0.29850739 0.05593827 7
-2.6550765 -0.2383606 -0.71508968 47
-2.6587839 -0.23869343 -0.61765188 47
-2.6296327 -0.23607635 -0.51517022 12
-2.6556175 -0.23840916 -0.42527246 21
-2.9062328 -0.26090828 -0.35963529 27
-3.1948597 -0.28681988 -0.28107819 58
-3.1329436 -0.28126132 -0.16749902 7
-3.1468534 -0.2825101 -0.055684496 4
-2.7037671 -0.24273181 0.7258271 29
-2.7466431 -0.24658103 0.63564891 10
-2.7669449 -0.24840362 0.53964037 127
-26.090122 -2.3422515 4.138813 79
-26.089663 -2.3422103 3.2055714 53
-26.124998 -2.3453827 2.2918351 37
-26.187778 -2.3510187 1.3935168 43
-8.1360464 -0.73041695 0.14193033 29
-2.6558123 -0.23001826 -0.71508968 53
-2.6595206 -0.23033945 -0.61765188 52
-2.6303613 -0.22781397 -0.51517022 12
-2.6563535 -0.23006514 -0.42527246 8
-2.8180473 -0.24406934 -0.34862605 12
-2.8186076 -0.24411787 -0.24790746 13
-3.1139147 -0.26969424 -0.16643552 6
-3.1477256 -0.27262259 -0.055684496 9
-2.7045162 -0.23423649 0.7258271 19
-2.7376962 -0.23711017 0.63340276 34
-2.718812 -0.23547465 0.53010607 1
-2.7848985 -0.24119835 0.44166064 1
-118.66718 -10.277692 14.576301 -1
-26.132238 -2.2632971 2.2918351 128
-26.195034 -2.2687359 1.3935168 51
-8.1183786 -0.70312774 0.14158289 31
-2.6468966 -0.22087049 -0.71249878 53
-2.6505222 -0.22117303 -0.61539769 53
-2.6310639 -0.21954934 -0.51517022 11
-2.657063 -0.22171883 -0.42527246 28
0.1 0.1 0.1 -1
-2.7895784 -0.2327766 -0.24528873 9
-3.1147466 -0.25991026 -0.16643552 7
-3.1485665 -0.26273239 -0.055684496 5
-2.7148659 -0.2265422 0.72841012 28
-2.7287166 -0.22769798 0.63115668 15
-2.7586684 -0.23019731 0.5377335 22
-2.7561126 -0.22998403 0.43697873 7
-2.7300744 -0.22781128 0.33525491 1
-2.779712 -0.23195328 0.24371965 127
-9.1154814 -0.76064205 0.48479354 127
-8.0806913 -0.67429394 0.14088801 47
-2.6475775 -0.21255395 -0.71249878 65
-2.6512041 -0.2128451 -0.61539769 51
-2.6317408 -0.21128254 -0.51517022 11
-2.647903 -0.21258008 -0.42369738 7
-2.7799528 -0.22318137 -0.34373304 19
-2.7704363 -0.22241735 -0.24354289 24
-3.1055939 -0.24932462 -0.16590379 6
-3.1493764 -0.2528396 -0.055684496 8
-2.7059345 -0.21723901 0.7258271 66
-2.7197053 -0.21834455 0.62891054 28
-2.759378 -0.22152957 0.5377335 18
-2.7568216 -0.22132434 0.43697873 31
-2.7604589 -0.22161636 0.33889899 12
-2.7605667 -0.221625 0.24197879 1
-2.7970624 -0.22455496 0.14871942 1
-8.0927362 -0.64970458 0.14106172 204
-2.6674562 -0.20618622 -0.71768057 98
-2.6518238 -0.20497788 -0.61539769 54
-2.6323559 -0.20347309 -0.51517022 11
-2.6485221 -0.20472267 -0.42369738 36
-2.7707074 -0.21416722 -0.34250981 21
-2.7710841 -0.21419634 -0.24354289 15
-3.0963638 -0.23933947 -0.16537204 23
-3.1501126 -0.24349409 -0.055684496 10
-25.389721 -1.9625479 6.8088264 63
-2.7494876 -0.21252701 0.63564891 170
-2.7306612 -0.21107179 0.53201294 28
-2.747618 -0.2123825 0.4354181 17
-2.7710009 -0.2141899 0.34011367 10
-2.7810769 -0.21496877 0.24371965 13
-2.78776 -0.21548533 0.14819016 37
-2.7812824 -0.21498466 0.048468255 23
0.1 0.1 0.1 -1
-2.6524203 -0.19710888 -0.61539769 89
-2.6231604 -0.19493449 -0.51325506 12
-2.6491179 -0.19686346 -0.42369738 7
-2.7713306 -0.20594545 -0.34250981 19
-2.7717073 -0.20597343 -0.24354289 29
-2.7883501 -0.20721021 -0.14888801 28
-119.65144 -8.8916378 -2.1146011 -1
-25.395432 -1.8872066 6.8088264 33
-25.440912 -1.8905864 5.8803139 1
-25.550642 -1.8987406 4.9768949 124
-2.7580864 -0.20496123 0.43697873 33
-2.7716241 -0.20596725 0.34011367 18
-2.7618332 -0.20523967 0.24197879 11
-2.748553 -0.20425276 0.14607316 1
-2.7719371 -0.20599051 0.048294533 17
0.1 0.1 0.1 -1
-2.643374 -0.18716091 -0.6131435 128
-2.6434054 -0.18716314 -0.51708531 13
-2.6694899 -0.18901002 -0.42684755 25
-2.7720327 -0.19627044 -0.34250981 19
-2.7525356 -0.19488998 -0.24179707 14
-2.7691345 -0.19606525 -0.14782453 17
-2.7726271 -0.19631253 -0.04898826 17
-25.392227 -1.7978661 6.8062434 50
-25.486237 -1.8045224 5.889298 15
-25.488569 -1.8046875 4.9635472 1
-118.23364 -8.3713913 18.727659 -1
-2.7723262 -0.19629122 0.34011367 33
-2.77247 -0.1963014 0.24284922 49
-119.53258 -8.4633598 6.351007 -1
-2.7826128 -0.19701955 0.048468255 3
0.1 0.1 0.1 -1
-2.6536694 -0.17951316 -0.61539769 162
-2.6341879 -0.1781953 -0.51517022 11
-2.6405125 -0.17862314 -0.4221223 9
-2.7627332 -0.18689102 -0.34128654 20
-2.7531343 -0.18624167 -0.24179707 28
-2.7697368 -0.1873648 -0.14782453 19
-2.783206 -0.18827593 -0.049164478 16
-25.388111 -1.7174333 6.8036604 35
-25.491779 -1.7244462 5.889298 82
-25.533291 -1.7272543 4.9711747 13
-26.056479 -1.7626464 4.126328 13
-26.075438 -1.763929 3.1982832 60
-119.27196 -8.068408 10.445127 -1
-119.55857 -8.0877962 6.351007 -1
-119.70831 -8.0979252 2.084656 -1
0.1 0.1 0.1 -1
0.1 0.1 0.1 -1
-2.6445293 -0.17055055 -0.51708531 12
-2.6509154 -0.17096241 -0.42369738 20
-2.7633069 -0.17821074 -0.34128654 20
-2.7636468 -0.17823267 -0.24266998 15
-2.780277 -0.17930517 -0.14835627 9
-2.7738059 -0.17888784 -0.04898826 22
-25.374102 -1.6364224 6.7984943 36
-25.458174 -1.6418445 5.8803139 35
-25.528795 -1.6463989 4.9692678 13
-26.061888 -1.6807791 4.126328 10
-26.061039 -1.6807244 3.1958539 31
-26.135923 -1.6855537 2.2883534 28
-9.0285463 -0.58226752 0.47950104 1
-2.7837958 -0.17953211 0.048468255 75
0.1 0.1 0.1 -1
-1.4294779 -0.087681048 -0.331368 67
-2.645052 -0.1622417 -0.51708531 12
-2.6514394 -0.16263348 -0.42369738 10
-2.7539468 -0.16892105 -0.3400633 21
-2.75425 -0.16893966 -0.24179707 28
-119.60545 -7.3363357 -6.3809147 -1
-2.7843339 -0.17078494 -0.049164478 10
-25.38876 -1.5572908 6.8010774 35
-25.463207 -1.5618573 5.8803139 32
-25.524042 -1.5655888 4.967361 11
-26.037462 -1.5970809 4.1216459 12
-26.066191 -1.598843 3.1958539 40
-26.101315 -1.6009974 2.2848718 14
