# .PCD v0.7 - Point Cloud Data file format
VERSION 0.7
FIELDS x y z intensity
SIZE 4 4 4 4
TYPE F F F F
COUNT 1 1 1 1
WIDTH 1431
HEIGHT 1
VIEWPOINT 0 0 0 1 0 0 0
POINTS 1431
DATA ascii
-26.037357 0.42266411 2.2752969 18
-7.9877357 0.12966481 0.42340046 6
-7.9977388 0.1298272 0.13897707 7
0.1 0.1 0.1 -1
-1.3637103 0.026422676 -0.31558856 130
-1.4915849 0.028900322 -0.29109991 63
0.1 0.1 0.1 -1
-2.6494513 0.051334653 -0.32660756 25
-3.4262259 0.066385105 -0.30028227 17
-8.196846 0.15881865 -0.43656093 29
-8.0172501 0.15533885 -0.14132585 100
-25.306137 0.49032104 6.767498 41
-25.399107 0.49212238 5.8556066 33
-25.449438 0.49309757 4.9444785 13
-25.943243 0.50266534 4.0997968 11
-25.971342 0.50320977 3.1788483 27
-26.02594 0.50426769 2.2744265 22
-8.406621 0.16288316 0.445629 9
-8.007288 0.15514584 0.13915078 6
0.1 0.1 0.1 -1
-1.3538804 0.030487426 -0.31333435 126
-1.5012991 0.033807084 -0.29301503 45
-3.751616 0.084480964 -0.5985316 31
-3.3636887 0.075745404 -0.41468152 101
-3.445919 0.077597104 -0.30202812 24
-8.1963072 0.18456897 -0.43656093 16
-8.0067263 0.18029989 -0.14114963 22
-25.294813 0.56960261 6.764915 40
-25.397434 0.57191348 5.8556066 40
-25.447763 0.5730468 4.9444785 12
-25.961287 0.58461058 4.1029181 11
-25.969633 0.58479851 3.1788483 20
-26.034187 0.58625221 2.2752969 17
-8.6057377 0.19378875 0.45621401 15
-8.0267534 0.18075086 0.13949823 14
0.1 0.1 0.1 -1
-1.3440385 0.034490678 -0.31108016 129
-1.4913739 0.038271595 -0.29109991 74
-3.8599234 0.099053241 -0.61585754 70
-3.4725721 0.089113049 -0.42813724 25
-119.50259 3.0666721 -10.474963 -1
-8.2056694 0.21057364 -0.43709266 9
-8.0461016 0.20647882 -0.14185449 21
-25.302557 0.64931345 6.767498 57
-25.395514 0.65169889 5.8556066 42
-25.445837 0.65299034 4.9444785 14
-25.939573 0.66566056 4.0997968 13
-25.967669 0.66638154 3.1788483 14
-26.022259 0.66778243 2.2744265 13
-10.43192 0.26770362 0.55306685 78
-8.5159111 0.21853505 0.14801058 18
0.1 0.1 0.1 -1
-1.3536621 0.038993452 -0.31333435 128
-1.510868 0.043521907 -0.29493016 42
-3.9188197 0.11288511 -0.62530804 40
-3.4325919 0.098878883 -0.42324427 12
-4.3813872 0.12620978 -0.38408199 8
-8.4046011 0.24210207 -0.44772753 5
-8.1553497 0.23492217 -0.14379288 7
-25.319704 0.72935677 6.7726641 45
-25.393339 0.73147792 5.8556066 61
-25.433847 0.7326448 4.9425716 14
-25.937353 0.74714875 4.0997968 19
-25.955524 0.74767214 3.1776335 12
-26.039948 0.75010407 2.2761674 18
-119.78214 3.4504316 6.351007 -1
-9.6645317 0.2783955 0.16798854 46
0.1 0.1 0.1 -1
-1.3535329 0.043245904 -0.31333435 104
-1.491104 0.047641356 -0.29109991 101
-3.9283156 0.12551123 -0.62688309 47
-3.4521041 0.11029607 -0.42569077 28
-9.897007 0.31621325 -0.86767614 16
-8.5535107 0.27328801 -0.45570368 21
-8.2245255 0.26277679 -0.1450264 3
-25.297977 0.80828023 6.767498 48
-25.390917 0.81124973 5.8556066 68
-25.441233 0.81285733 4.9444785 20
-25.944752 0.82894492 4.1013575 18
-25.972889 0.82984394 3.1800628 11
-26.037464 0.83190709 2.2761674 23
-11.887242 0.37980202 0.63033742 130
-10.952757 0.34994486 0.19039859 226
0.1 0.1 0.1 -1
-1.3339171 0.046814512 -0.30882594 147
-1.5498002 0.054391038 -0.30259067 1
-3.4837925 0.1222655 -0.55600435 146
-4.2849193 0.15038145 -0.52844369 15
-9.856142 0.34590638 -0.8641845 19
-119.7565 4.2029161 -6.3809147 -1
-8.1437206 0.28580809 -0.14361666 15
-25.304968 0.88809091 6.770081 41
-25.388243 0.8910135 5.8556066 32
-25.418932 0.89209056 4.9406648 23
-25.951891 0.91079497 4.1029181 21
-25.960234 0.91108781 3.1788483 12
-26.024765 0.91335255 2.2752969 23
-11.866031 0.41644448 0.62927896 143
-8.37358 0.29387513 0.14557847 137
0.1 0.1 0.1 -1
-1.36297 0.052121792 -0.31558856 106
0.1 0.1 0.1 -1
-3.4636552 0.1324548 -0.55285418 19
-4.3439317 0.16611774 -0.53578317 22
-9.8450518 0.37648794 -0.86331159 16
-8.1724396 0.312525 -0.43549743 9
-119.89373 4.5848966 -2.1146011 -1
-25.302053 0.96758431 6.770081 41
-25.395056 0.97114086 5.8578525 66
-25.406195 0.9715668 4.9387579 25
-25.929161 0.9915657 4.0997968 13
-25.957243 0.99263966 3.1788483 19
-26.011812 0.99472648 2.2744265 11
-11.954472 0.45715499 0.6340422 101
-8.3126688 0.31788754 0.14453615 99
0.1 0.1 0.1 -1
-1.343331 0.055597663 -0.31108016 161
-1.4905888 0.061692357 -0.29109991 60
-3.4829555 0.14415225 -0.55600435 41
-7.9529619 0.32915649 -0.98104596 10
-8.6394701 0.35756963 -0.757689 20
-119.72773 4.9552808 -6.3809147 -1
-8.0019054 0.33118215 -0.14114963 7
-25.289236 1.0466686 6.767498 36
-25.372408 1.0501109 5.8533602 44
-25.393209 1.0509719 4.936851 20
-25.916048 1.0726111 4.0982361 20
-25.953997 1.0741817 3.1788483 16
-26.00856 1.07644 2.2744265 9
-20.832901 0.86223024 1.1050752 97
-8.3016386 0.34358749 0.14436243 66
0.1 0.1 0.1 -1
-1.3528826 0.060251039 -0.31333435 96
-1.4903876 0.066374868 -0.29109991 56
-3.5219471 0.15685098 -0.56230468 33
-7.9518886 0.35413978 -0.98104596 15
-8.5885448 0.38249347 -0.75332445 10
-8.1403866 0.36253461 -0.4339022 10
-7.9908371 0.35587436 -0.1409734 12
-25.295473 1.1265416 6.770081 41
-25.368982 1.1298153 5.8533602 32
-25.39959 1.1311784 4.9387579 19
-25.91255 1.1540233 4.0982361 17
-25.940578 1.1552715 3.1776335 19
-26.015001 1.158586 2.2752969 23
-12.01122 0.53492337 0.6372177 185
-8.300518 0.36966613 0.14436243 129
0.1 0.1 0.1 -1
-1.3332236 0.063572869 -0.30882594 134
-1.4901718 0.071056724 -0.29109991 52
-3.6693964 0.17496996 -0.58593094 70
-7.9209962 0.37770143 -0.97737616 8
-8.5574493 0.40804979 -0.75070572 8
-8.1691313 0.38953343 -0.43549743 11
-7.9996667 0.38145274 -0.14114963 9
-25.291811 1.206004 6.770081 41
-25.375042 1.2099729 5.8556066 36
-25.405716 1.2114354 4.9406648 14
-25.889065 1.2344832 4.0951152 25
-25.936821 1.2367605 3.1776335 16
-26.011232 1.2403086 2.2752969 15
-20.896894 0.99643874 1.1087799 1
-8.2993164 0.39574111 0.14436243 126
0.1 0.1 0.1 -1
-1.3330172 0.067760997 -0.30882594 124
-1.4899411 0.075737879 -0.29109991 54
-3.7181408 0.1890035 -0.59380639 38
-7.9197702 0.40258408 -0.97737616 10
-8.5660744 0.4354375 -0.75157863 10
-8.1578941 0.41468859 -0.4349657 9
-7.9984293 0.40658253 -0.14114963 8
-25.287897 1.2854545 6.770081 41
-25.351652 1.2886953 5.8511143 39
-25.421392 1.2922404 4.9444785 14
-25.894924 1.3163114 4.0966759 15
-25.952633 1.319245 3.1800628 16
-26.007208 1.3220191 2.2752969 29
-119.6773 6.0835319 6.351007 -1
-8.2880459 0.42130458 0.1441887 25
0.1 0.1 0.1 -1
-1.3522547 0.072998792 -0.31333435 129
-1.4896959 0.080418281 -0.29109991 62
-3.7273896 0.20121574 -0.59538144 57
-7.8986454 0.42639273 -0.97492969 10
-8.5547161 0.46180943 -0.75070572 12
-8.1565514 0.44031528 -0.4349657 8
-7.9971123 0.43170828 -0.14114963 8
-25.283733 1.3648924 6.770081 37
-25.366938 1.3693839 5.8556066 34
-25.427008 1.3726268 4.9463854 12
-25.890661 1.3976561 4.0966759 20
-25.928537 1.3997008 3.1776335 20
-26.002926 1.4037166 2.2752969 50
-26.065413 1.4070897 1.383461 36
-8.2966661 0.44787908 0.14436243 69
0.1 0.1 0.1 -1
-1.3325518 0.076367773 -0.30882594 122
-1.4796221 0.084796287 -0.28918478 50
-3.7069838 0.21244508 -0.59223127 61
-7.8872795 0.4520154 -0.97370642 10
-8.5730286 0.49131531 -0.75245154 9
-8.1550465 0.46736094 -0.4349657 9
-7.9956369 0.45822528 -0.14114963 8
-25.288713 1.4492815 6.7726641 35
-25.362257 1.4534962 5.8556066 42
-25.422318 1.4569381 4.9463854 13
-25.737965 1.4750278 4.073266 17
-25.913845 1.4851073 3.1764188 35
-25.978237 1.4887977 2.2735562 27
-26.060604 1.493518 1.383461 39
-8.2951345 0.47538936 0.14436243 23
0.1 0.1 0.1 -1
-1.3420303 0.08114171 -0.31108016 122
-1.4793484 0.089444228 -0.28918478 56
-3.6372979 0.21991797 -0.58120573 107
-7.8957272 0.47739074 -0.97492969 10
-8.5714436 0.51824582 -0.75245154 11
-8.1435699 0.49237576 -0.43443397 8
-7.9941578 0.48334202 -0.14114963 9
-25.284035 1.528721 6.7726641 35
-25.367292 1.5337549 5.8578525 42
-25.417614 1.5367974 4.9463854 13
-25.466997 1.5397832 4.0311289 1
-25.552368 1.5449449 3.13269 13
-25.675116 1.5523665 2.2474434 14
-26.035847 1.5741769 1.3824025 39
-8.2836199 0.50084347 0.1441887 33
0.1 0.1 0.1 -1
-1.3223227 0.084120348 -0.30657175 106
-1.4790602 0.094091289 -0.28918478 56
-3.478905 0.2213126 -0.55600435 101
-7.8743787 0.50093329 -0.97248322 9
-8.5797148 0.54580361 -0.75332445 13
-8.1718798 0.51985902 -0.4360292 15
-7.9926 0.50845397 -0.14114963 7
-25.28875 1.6087588 6.7752471 33
-25.362349 1.6134409 5.8578525 38
-25.402864 1.6160183 4.9444785 12
-25.462034 1.6197824 4.0311289 29
-25.527576 1.6239519 3.1302605 11
-25.580635 1.6273272 2.2396095 3
-25.662037 1.6325057 1.3628203 18
-8.2919846 0.5274995 0.14436243 83
0.1 0.1 0.1 -1
-1.312331 0.087625049 -0.30431753 157
-1.4885504 0.099391311 -0.29109991 50
-3.4486327 0.23026708 -0.55127913 28
-7.8628635 0.52500767 -0.97125995 12
-8.568018 0.57209116 -0.75245154 6
-8.160243 0.54486382 -0.43549743 8
-8.0109158 0.53489316 -0.14150207 44
-25.264292 1.6869104 6.770081 33
-25.366879 1.6937602 5.8600988 36
-25.407457 1.6964697 4.9463854 12
-25.446964 1.6991076 4.0295682 12
-25.512445 1.7034798 3.1290457 8
-25.565456 1.7070193 2.238739 15
-25.656782 1.7131172 1.3628203 14
-8.3202152 0.55554527 0.14488359 5
0.1 0.1 0.1 -1
-1.341206 0.093786255 -0.31108016 108
-1.4784398 0.10338258 -0.28918478 58
-3.4577436 0.24178898 -0.55285418 92
-3.4355514 0.24023716 -0.4244675 30
-119.25074 8.3388243 -10.474963 -1
-8.1983366 0.57328355 -0.43762442 33
-7.9792733 0.55796516 -0.1409734 1
-25.268505 1.766946 6.7726641 37
-25.361433 1.7734441 5.8600988 34
-25.402002 1.776281 4.9463854 12
-25.451355 1.7797321 4.0311289 15
-25.516869 1.7843133 3.1302605 8
-25.569904 1.7880219 2.2396095 8
-25.621387 1.791622 1.3612325 12
-119.68962 8.3695135 2.084656 -1
0.1 0.1 0.1 -1
-1.331188 0.097289167 -0.30882594 131
-1.4781077 0.10802672 -0.28918478 59
-3.7130384 0.27136546 -0.59380639 84
-3.4149828 0.2495822 -0.422021 10
-119.22395 8.7134199 -10.474963 -1
-8.2462921 0.60267591 -0.44028312 85
-119.66222 8.74545 -2.1146011 -1
-25.272463 1.8470247 6.7752471 33
-25.355736 1.8531106 5.8600988 36
-25.406086 1.8567904 4.9482923 12
-25.445639 1.859681 4.0311289 13
-25.501238 1.8637445 3.1290457 8
-25.564161 1.8683432 2.2396095 8
-25.635551 1.8735608 1.362291 12
-119.66273 8.7454882 2.084656 -1
0.1 0.1 0.1 -1
-1.3503046 0.10295206 -0.31333435 125
-1.4679745 0.11192364 -0.28726962 70
-3.7614007 0.28678265 -0.60168177 46
0.1 0.1 0.1 -1
-9.6350098 0.73460758 -0.84672618 1
-12.61546 0.9618479 -0.67371827 1
-17.80555 1.3575588 -0.31472313 88
-25.276169 1.9271456 6.7778301 32
-25.349789 1.9327586 5.8600988 36
-25.390339 1.9358504 4.9463854 13
-25.449518 1.9403625 4.0326896 14
-25.524948 1.9461135 3.13269 9
-25.568098 1.9494034 2.2404799 11
-25.619583 1.9533286 1.3617617 12
-17.855474 1.3613653 0.3111349 5
0.1 0.1 0.1 -1
-1.3208383 0.10488012 -0.30657175 121
-1.4773998 0.11731175 -0.28918478 71
-3.7801695 0.30016133 -0.60483193 86
-7.825964 0.62141442 -0.96759021 10
-9.6525154 0.76645029 -0.84847206 31
-12.632286 1.0030565 -0.67478174 20
-13.525321 1.0739673 -0.23912615 1
-25.241098 2.0042493 6.770081 35
-25.285309 2.0077598 5.846622 78
-25.393919 2.0163839 4.9482923 14
-25.433451 2.0195229 4.0311289 12
-25.508814 2.025507 3.1314752 9
-25.571779 2.0305066 2.2413504 10
-25.613319 2.0338051 1.3617617 16
-17.681669 1.4039987 0.30818164 18
0.1 0.1 0.1 -1
-1.3302119 0.10983081 -0.30882594 112
-1.4868056 0.12276018 -0.29109991 67
-3.8185747 0.31528595 -0.61113226 39
-7.8338642 0.64681399 -0.96881342 12
-9.640132 0.79595095 -0.84759909 7
-12.589265 1.0394503 -0.67265475 15
-13.282731 1.0967073 -0.23489694 33
-24.541471 2.0263009 6.5841041 45
-24.492249 2.0222368 5.6646872 19
-24.565668 2.0282989 4.7881165 28
-25.446669 2.1010399 4.0342503 13
-25.502325 2.1056352 3.1314752 8
-25.565273 2.1108327 2.2413504 9
-25.25848 2.0855017 1.343238 47
-17.58749 1.4521357 0.30661815 1
0.1 0.1 0.1 -1
-1.3201532 0.11317706 -0.30657175 138
-1.4766335 0.12659214 -0.28918478 55
-6.5331531 0.56008875 -1.0458553 106
-7.8021278 0.66887832 -0.96514368 9
-9.6276579 0.82538146 -0.84672618 12
-12.575988 1.0781424 -0.67212301 14
-13.249335 1.1358687 -0.23436829 11
-24.525358 2.1025648 6.581521 34
-24.485775 2.0991714 5.6646872 58
-24.529833 2.1029484 4.7823958 11
-24.613268 2.1101015 3.9031565 43
-25.446135 2.1815033 3.1254017 15
-25.558516 2.1911378 2.2413504 10
-25.550287 2.1904323 1.3591155 18
-17.63265 1.5116514 0.30748677 117
0.1 0.1 0.1 -1
-1.3294955 0.11818656 -0.30882594 121
-1.4860049 0.13209957 -0.29109991 86
-6.5313611 0.58061051 -1.0458553 34
-7.7999883 0.69338608 -0.96514368 9
-9.6150951 0.85474145 -0.84585327 8
-12.532752 1.1141088 -0.66999608 14
-13.265619 1.1792576 -0.23472072 12
-24.518631 2.1796031 6.581521 36
-24.479059 2.1760852 5.6646872 35
-24.532883 2.1808701 4.7843027 16
-24.577002 2.1847918 3.8984747 4
-24.638313 2.1902423 3.0270116 8
-24.708059 2.1964424 2.1673641 14
-24.787327 2.2034888 1.3188925 35
-17.637774 1.5679238 0.30766049 13
0.1 0.1 0.1 -1
-1.3388193 0.12325586 -0.31108016 140
-1.5051297 0.13856691 -0.29493016 40
-6.5295048 0.60112649 -1.0458553 125
-7.7780051 0.71606725 -0.96269721 10
-9.5826025 0.88220412 -0.84323454 9
-12.499358 1.1507297 -0.66840082 16
-13.281762 1.2227602 -0.23507316 13
-24.511663 2.2566197 6.581521 36
-24.481806 2.253871 5.6669335 36
-24.525911 2.2579315 4.7843027 11
-24.579851 2.2628975 3.9000351 22
-24.651079 2.2694547 3.0294411 11
-24.691116 2.2731407 2.1664937 5
-24.75045 2.2786031 1.3173047 1
-17.652674 1.6251599 0.30800793 39
0.1 0.1 0.1 -1
-1.3384255 0.12746127 -0.31108016 126
0.1 0.1 0.1 -1
-6.5079226 0.61976409 -1.0427051 27
-7.7757173 0.74049902 -0.96269721 9
-9.5698671 0.91135991 -0.84236163 9
-12.485741 1.1890452 -0.66786909 18
-13.277855 1.26448 -0.23507316 12
-24.504454 2.3336141 6.581521 36
-24.474604 2.3307717 5.6669335 38
-24.518696 2.3349705 4.7843027 12
-24.572622 2.340106 3.9000351 9
-24.633945 2.3459461 3.0282264 8
-24.703688 2.3525877 2.1682343 12
-24.792875 2.3610811 1.3199509 20
-17.657434 1.6815572 0.30818164 7
0.1 0.1 0.1 -1
-1.3380184 0.13166542 -0.31108016 102
-1.5139971 0.1489823 -0.29684529 1
-6.5059438 0.64020628 -1.0427051 83
-7.7535977 0.76297957 -0.96025068 9
-9.5570421 0.94044441 -0.84148872 9
-12.442192 1.2243527 -0.6657421 18
-13.273817 1.3061873 -0.23507316 16
-24.51623 2.4124777 6.5866871 34
-24.467161 2.4076493 5.6669335 35
-24.521009 2.4129479 4.7862096 14
-24.565149 2.4172914 3.9000351 13
-24.636332 2.4242961 3.0294411 9
-24.68626 2.4292092 2.1673641 8
-24.666079 2.4272234 1.3135999 11
-21.602386 2.1257458 0.37714902 32
0.1 0.1 0.1 -1
-1.3182127 0.13389917 -0.30657175 138
0.1 0.1 0.1 -1
-6.4940758 0.65964413 -1.0411299 11
-7.7314143 0.78532845 -0.9578042 10
-9.5342188 0.96845067 -0.8397429 9
-12.418415 1.2614166 -0.66467863 17
-13.279595 1.3488921 -0.23524939 17
-24.50853 2.4894857 6.5866871 47
-24.478867 2.4864726 5.6714253 40
-24.523073 2.490963 4.7881165 12
-24.567261 2.4954512 3.9015958 12
-24.628595 2.5016813 3.0294411 8
-24.668596 2.5057447 2.1664937 8
-24.757681 2.5147934 1.3188925 9
-21.575706 2.1915803 0.37680158 11
0.1 0.1 0.1 -1
-1.3371648 0.14006978 -0.31108016 112
-1.4544622 0.15235685 -0.2853545 70
-6.491971 0.68004262 -1.0411299 82
-7.728909 0.80961347 -0.9578042 9
-9.5212221 0.99736065 -0.83886999 10
-12.384596 1.2973028 -0.66308337 16
-13.275292 1.3906045 -0.23524939 16
-25.250017 2.6449728 6.7881622 38
-24.470934 2.5633628 5.6714253 44
-24.515127 2.567992 4.7881165 13
-24.569122 2.5736482 3.9031565 12
-24.620613 2.579042 3.0294411 8
-24.690327 2.5863445 2.1691048 7
-24.749659 2.5925596 1.3188925 31
-119.32899 12.499869 2.084656 -1
0.1 0.1 0.1 -1
-1.3270067 0.14345609 -0.30882594 134
-1.4832231 0.16034386 -0.29109991 45
-6.4994984 0.70262837 -1.0427051 135
-7.726182 0.83523899 -0.9578042 9
-9.5178623 1.0289286 -0.83886999 9
-12.330586 1.3329983 -0.66042471 19
-13.280548 1.4356939 -0.23542559 21
-25.241108 2.7286904 6.7881622 37
-24.471987 2.6455445 5.6736717 53
-24.525995 2.6513832 4.7919302 15
-24.550632 2.6540465 3.9015958 11
-24.611927 2.6606727 3.0294411 9
-24.681614 2.6682062 2.1691048 8
-119.13768 12.87938 6.351007 -1
-14.930741 1.6140881 0.26092944 45
0.1 0.1 0.1 -1
-1.3265495 0.14762428 -0.30882594 125
-1.4632027 0.16283165 -0.28726962 88
-6.4874444 0.72195143 -1.0411299 94
-7.7136559 0.85840964 -0.95658094 10
-9.4947815 1.0566212 -0.83712417 9
-12.157619 1.3529536 -0.65138507 14
-13.275972 1.4774088 -0.23542559 19
-25.242012 2.8090425 6.7907453 38
-25.315809 2.817255 5.8713293 46
-24.50779 2.727335 4.7900233 33
-24.551991 2.732254 3.9031565 14
-24.613312 2.7390778 3.0306559 10
-24.68301 2.7468343 2.1699753 7
-24.444582 2.7203012 1.3035442 159
-14.865973 1.6543512 0.25988713 36
0.1 0.1 0.1 -1
-1.3357586 0.152899 -0.31108016 127
-1.4821863 0.16965999 -0.29109991 47
-6.4655223 0.74008268 -1.0379798 47
-7.7109208 0.88263857 -0.95658094 9
-9.4815178 1.0853118 -0.83625126 10
-11.825914 1.3536655 -0.63383752 28
-13.271265 1.5191091 -0.23542559 9
-25.233063 2.8883286 6.7907453 38
-25.306833 2.8967729 5.8713293 40
-25.347595 2.9014387 4.9559197 13
-117.76067 13.479597 18.727659 -1
-24.604584 2.8163893 3.0306559 11
-24.674259 2.8243647 2.1699753 11
-24.693867 2.8266091 1.3173047 1
-14.612363 1.6726192 0.2555441 122
0.1 0.1 0.1 -1
-1.3159199 0.15481791 -0.30657175 131
-1.4816461 0.17431557 -0.29109991 127
-6.4729729 0.76154488 -1.039555 73
-7.7081099 0.90685874 -0.95658094 9
-9.4681683 1.1139295 -0.83537835 11
-11.811686 1.3896441 -0.63330579 21
-13.266427 1.5607945 -0.23542559 18
-25.223864 2.9675863 6.7907453 38
-25.307285 2.9774008 5.8735752 44
-25.367603 2.9844971 4.9616404 20
-25.397602 2.9880266 4.0404925 3
-25.463116 2.9957342 3.1375487 8
-25.526026 3.0031357 2.2457025 16
-24.734453 2.9100072 1.3199509 14
-14.904936 1.753565 0.26075572 1
0.1 0.1 0.1 -1
-1.3347715 0.16128874 -0.31108016 127
-1.5200672 0.18367916 -0.29876041 48
-6.4607444 0.78069186 -1.0379798 76
-7.6855164 0.9286887 -0.95413446 10
-9.4448423 1.1412789 -0.83363253 9
-11.827089 1.4291406 -0.63436931 20
-13.261458 1.6024644 -0.23542559 27
-25.233599 3.0491323 6.7959113 34
-25.307482 3.0580602 5.8758216 43
-25.348356 3.0629995 4.9597335 11
-25.397896 3.0689855 4.0420532 30
-25.463432 3.0769048 3.1387634 8
-25.536245 3.0857031 2.2474434 7
-25.577782 3.0907223 1.3654665 15
-14.958911 1.8075782 0.26179805 37
0.1 0.1 0.1 -1
-1.3245897 0.1642821 -0.30882594 126
0.1 0.1 0.1 -1
-6.4484596 0.79976958 -1.0364047 45
-7.6825609 0.95282882 -0.95413446 10
-9.431324 1.169719 -0.83275956 9
-11.822541 1.4662894 -0.63436931 18
-13.296048 1.6490411 -0.23613046 51
-25.20472 3.1260128 6.7907453 36
-25.297749 3.1375506 5.8758216 30
-25.367834 3.1462431 4.9654541 14
-25.397932 3.1499758 4.0436139 10
-25.473343 3.1593287 3.1411927 10
-25.526426 3.1659124 2.2474434 9
-25.577856 3.172291 1.3659958 17
-14.953158 1.854564 0.26179805 40
0.1 0.1 0.1 -1
-1.3337318 0.16967212 -0.31108016 136
-1.5383559 0.1957036 -0.30259067 56
-6.4459152 0.82002401 -1.0364047 85
-7.6598387 0.97445458 -0.95168793 10
-9.4078379 1.1968281 -0.83101374 9
-11.817876 1.5034237 -0.63436931 22
-14.322328 1.8220302 -0.254457 95
-25.213942 3.2076185 6.7959113 39
-25.297434 3.21824 5.8780675 35
-25.357824 3.2259228 4.9654541 13
-25.387911 3.2297502 4.0436139 14
-25.453444 3.2380872 3.1399779 9
-25.526236 3.2473474 2.2483137 10
-25.567764 3.2526305 1.3659958 15
-119.02263 15.141591 2.084656 -1
0.1 0.1 0.1 -1
-1.342853 0.17512117 -0.31333435 141
-1.4988036 0.19545867 -0.29493016 147
-6.4433074 0.8402704 -1.0364047 49
-7.6567397 0.99851382 -0.95168793 10
-9.3941536 1.2250896 -0.83014083 9
-11.832898 1.5431259 -0.63543278 19
-13.820807 1.8023686 -0.24564616 1
-25.21332 3.2880638 6.7984943 39
-25.287199 3.2976983 5.8780675 42
-25.337831 3.3043013 4.9635472 14
-25.377638 3.3094926 4.0436139 12
-25.443146 3.3180354 3.1399779 10
-25.535666 3.3301008 2.2500546 12
-25.577223 3.3355203 1.3670542 13
-14.643775 1.9096916 0.2565864 14
0.1 0.1 0.1 -1
-1.3326395 0.17804879 -0.31108016 140
-1.5565529 0.207965 -0.30642095 57
-6.4308476 0.85920066 -1.0348296 126
-7.6535649 1.0225632 -0.95168793 10
-9.3803844 1.2532768 -0.82926792 9
-11.818094 1.5789698 -0.63490105 17
-118.92462 15.889059 -2.1146011 -1
-25.212442 3.3685367 6.8010774 40
-25.296032 3.379705 5.8825598 44
-25.346786 3.3864861 4.967361 14
-25.376907 3.3905103 4.0451746 17
-25.442434 3.3992653 3.1411927 10
-25.515203 3.4089875 2.2491841 9
-25.566618 3.4158571 1.3670542 11
-12.120454 1.619367 0.21246119 8
0.1 0.1 0.1 -1
-1.3417262 0.18355507 -0.31333435 151
-1.5267189 0.20886301 -0.30067554 128
-6.4183326 0.878061 -1.0332546 44
-7.6404815 1.0452572 -0.95046473 9
-9.3566608 1.2800394 -0.8275221 9
-11.822969 1.6174432 -0.63543278 17
-118.87412 16.262592 -2.1146011 -1
-25.201735 3.4477272 6.8010774 40
-25.285288 3.4591579 5.8825598 40
-25.336021 3.4660983 4.967361 14
-25.424849 3.4782503 4.0545382 42
-25.4513 3.481869 3.1436222 14
-25.514236 3.4904792 2.2500546 11
-25.585443 3.5002205 1.368642 12
-12.075682 1.6520156 0.2117663 7
0.1 0.1 0.1 -1
-1.3604399 0.19047102 -0.31784275 148
-1.5552155 0.21774094 -0.30642095 49
-6.4057627 0.89685118 -1.0316795 112
-7.6175017 1.066503 -0.94801819 9
-9.3427277 1.3080467 -0.82664919 9
-11.817829 1.6545781 -0.63543278 19
-12.07038 1.6899369 -0.21480824 1
-25.200346 3.5282233 6.8036604 37
-25.274296 3.5385768 5.8825598 43
-25.334728 3.5470378 4.9692678 14
-25.805079 3.6128898 4.1169639 24
-25.853098 3.6196129 3.1946392 24
-25.897779 3.6258686 2.2848718 18
-25.77211 3.6082742 1.379227 35
-12.080335 1.6913306 0.21194004 16
0.1 0.1 0.1 -1
-1.3501906 0.19336286 -0.31558856 132
-1.5448079 0.22123431 -0.30450583 127
-6.4029136 0.91697103 -1.0316795 27
-7.6141138 1.0904288 -0.94801819 9
-9.3287115 1.335979 -0.82577628 9
-11.941078 1.7101001 -0.64234543 18
-12.154088 1.7406056 -0.21639419 17
-25.179575 3.6060054 6.8010774 41
-25.291994 3.6221049 5.889298 37
-25.333178 3.6280031 4.9711747 14
-117.33253 16.80337 18.727659 -1
-25.851425 3.7022221 3.1958539 15
-25.915844 3.7114477 2.287483 16
-25.978121 3.7203662 1.3908706 20
-12.065063 1.7278563 0.2117663 36
0.1 0.1 0.1 -1
-1.3592163 0.1990151 -0.31784275 134
-1.5538167 0.22750829 -0.30642095 42
-6.3902302 0.93565112 -1.0301044 73
-7.5811896 1.1100303 -0.94434845 9
-9.294898 1.3609498 -0.82315755 9
-12.014691 1.7591791 -0.64659935 12
-12.158453 1.7802286 -0.21657041 14
-25.177681 3.686491 6.8036604 42
-25.280489 3.701544 5.889298 36
-25.331367 3.7089937 4.9730816 15
-24.540663 3.5932195 3.9187629 6
-25.839666 3.7834182 3.1958539 17
-25.913914 3.7942894 2.2883534 19
-25.976185 3.8034072 1.3913997 20
-12.059576 1.7657511 0.2117663 17
0.1 0.1 0.1 -1
-1.3682197 0.20472595 -0.32009697 132
-1.5239737 0.22803134 -0.30067554 130
-6.3774929 0.95426065 -1.0285293 38
-7.5776653 1.1338418 -0.94434845 9
-9.2905769 1.3901438 -0.82315755 8
-11.801711 1.7658833 -0.63543278 9
-12.152801 1.8184167 -0.21657041 8
-25.175529 3.7670002 6.8062434 45
-25.278374 3.7823887 5.8915443 41
-25.3293 3.7900088 4.974988 15
-24.519485 3.6688368 3.9172022 21
-25.847286 3.8675148 3.1982832 15
-25.901865 3.8756816 2.2883534 19
-25.98386 3.8879504 1.3924583 21
-12.053969 1.8036287 0.2117663 28
0.1 0.1 0.1 -1
-1.3868314 0.2119673 -0.32460538 86
-1.5329521 0.23430082 -0.30259067 40
-6.3744636 0.97429138 -1.0285293 96
-7.5544438 1.1546429 -0.94190198 9
-9.2763157 1.4178189 -0.82228464 8
-11.440742 1.7486359 -0.61629003 29
-12.156912 1.8580974 -0.21674661 10
-25.182671 3.8489921 6.8114095 41
-25.275999 3.8632565 5.8937902 43
-25.317268 3.8695643 4.974988 18
-24.517603 3.7473412 3.9187629 16
-25.84482 3.950197 3.1994979 19
-25.909258 3.9600456 2.2900944 17
-25.98139 3.9710705 1.3929875 25
-12.048244 1.8414884 0.2117663 18
0.1 0.1 0.1 -1
-1.3669064 0.21331863 -0.32009697 131
-5.5275874 0.8626321 -1.0916246 20
-6.3713713 0.99431252 -1.0285293 24
-7.5311666 1.1753095 -0.93945545 9
-9.2521305 1.4438822 -0.82053882 12
-10.862938 1.695264 -0.58544892 27
-118.54648 18.500296 -2.1146011 -1
-25.170454 3.9280865 6.8114095 41
-25.273365 3.9441469 5.8960366 41
-25.314686 3.9505954 4.9768949 19
-24.515469 3.8258698 3.9203236 16
-25.832283 4.0313711 3.1994979 21
-25.896688 4.0414224 2.2900944 19
-25.978653 4.0542135 1.3935168 39
-12.052278 1.8808715 0.21194004 20
0.1 0.1 0.1 -1
-1.3662295 0.21761183 -0.32009697 127
-5.5151572 0.87844938 -1.0897095 10
-6.3487115 1.0112172 -1.0253792 23
-7.5274372 1.1989635 -0.93945545 10
-9.237711 1.4713745 -0.81966591 10
-11.015344 1.7545142 -0.59395683 1
-118.48777 18.872629 -2.1146011 -1
-25.16753 4.0086617 6.8139925 45
-25.260849 4.0235257 5.8960366 44
-25.302149 4.0301042 4.9768949 23
-24.522837 3.9059758 3.9234447 14
-25.829294 4.1140671 3.2007127 20
-25.90354 4.1258931 2.2918351 22
-118.34009 18.849104 6.351007 -1
-12.046309 1.9187256 0.21194004 30
0.1 0.1 0.1 -1
-1.3751556 0.22346558 -0.32235116 134
-5.5414338 0.90049428 -1.0954548 16
-6.3455033 1.0311573 -1.0253792 6
-7.5236335 1.2226057 -0.93945545 9
-9.2232103 1.4987905 -0.818793 10
-10.625372 1.7266445 -0.57321882 4
-118.42789 19.244774 -2.1146011 -1
-25.173883 4.0908074 6.8191586 40
-25.257702 4.1044283 5.8982825 44
-25.299053 4.1111479 4.9788017 28
-24.520195 3.9845815 3.9250054 24
-25.835836 4.1983762 3.2031419 20
-25.890451 4.2072511 2.2918351 21
-24.641726 4.0043306 1.3231264 1
-12.030354 1.9549569 0.2117663 109
0.1 0.1 0.1 -1
-1.3648353 0.22619176 -0.32009697 158
-5.5095291 0.91308457 -1.0897095 10
-6.3422327 1.0510871 -1.0253792 14
-7.4903812 1.2413678 -0.93578571 10
-9.1988001 1.5245011 -0.81704712 10
-10.511528 1.7420572 -0.5673697 16
-10.30778 1.7082903 -0.18414652 16
-25.170437 4.1714525 6.8217416 45
-25.26391 4.1869435 5.9027748 39
-25.276329 4.1890016 4.9768949 29
-24.507555 4.0615945 3.9250054 29
-25.832312 4.2811437 3.2043567 20
-25.886934 4.2901959 2.2927055 24
-118.21932 19.592281 6.351007 -1
-12.024152 1.9927417 0.2117663 15
0.1 0.1 0.1 -1
-4.8896904 0.82615137 -1.1473898 74
-5.4969554 0.92875361 -1.0877943 11
-6.3291621 1.0693614 -1.0238041 8
-7.4864445 1.2648933 -0.93578571 10
-9.1939659 1.5533924 -0.81704712 9
-10.171229 1.7185087 -0.54929042 12
-10.065753 1.7006878 -0.17991732 3
-25.157207 4.2505069 6.8217416 43
-25.250631 4.2662916 5.9027748 55
-25.282402 4.2716594 4.9807086 29
-24.494675 4.138567 3.9250054 29
-25.828522 4.3639307 3.2055714 24
-25.88315 4.3731608 2.293576 27
-118.15718 19.963581 6.351007 -1
-12.027691 2.0321724 0.21194004 98
0.1 0.1 0.1 -1
-4.8486652 0.83489567 -1.138373 1
-5.4940104 0.94601822 -1.0877943 11
-6.3257713 1.0892397 -1.0238041 8
-7.4824338 1.2884064 -0.93578571 9
-9.1694059 1.5788875 -0.8153013 9
-10.018165 1.725036 -0.5413143 2
-10.030801 1.7272118 -0.17938867 2
-25.153252 4.3311591 6.8243246 41
-25.246708 4.3472514 5.9050207 48
-25.288206 4.3543968 4.9845223 23
-24.491287 4.2171745 3.9265661 27
-25.814684 4.4450517 3.2055714 25
-25.869284 4.4544535 2.293576 28
-25.035904 4.3109527 1.3464135 163
-12.021248 2.0699484 0.21194004 125
0.1 0.1 0.1 -1
-4.8460188 0.85012406 -1.138373 142
-5.4813442 0.96157753 -1.0858792 12
-6.3125916 1.107401 -1.022229 9
-7.4587979 1.3084769 -0.93333924 8
-9.1545877 1.6059649 -0.81442839 9
-10.012696 1.7565005 -0.5413143 2
-10.054869 1.7638987 -0.17991732 9
-25.158552 4.4134974 6.8294907 42
-25.242523 4.4282284 5.9072671 45
-25.293739 4.4372129 4.9883361 19
-24.477917 4.2940955 3.9265661 22
-25.820147 4.5295591 3.2080007 32
-25.874786 4.5391445 2.2953169 30
-118.02942 20.705585 6.351007 -1
-12.024533 2.1094317 0.21211375 151
0.1 0.1 0.1 -1
-4.8337331 0.86363053 -1.1361188 127
-5.4782963 0.97879291 -1.0858792 12
-6.2993603 1.1254902 -1.020654 10
-7.4644208 1.3336486 -0.93456244 9
-9.1298847 1.6312127 -0.81268257 9
-10.036619 1.7932166 -0.5429095 2
-10.039435 1.7937198 -0.1797411 6
-25.154072 4.4942126 6.8320737 44
-25.238079 4.509222 5.909513 44
-25.289337 4.5183802 4.990243 18
-24.47403 4.3727112 3.9281268 19
-25.825331 4.6141443 3.2104301 36
-25.88982 4.6256666 2.2979281 31
-117.96378 21.076283 6.351007 -1
-12.746202 2.2773306 0.22496913 17
0.1 0.1 0.1 -1
-4.830996 0.87881184 -1.1361188 128
-5.4751945 0.99599862 -1.0858792 11
-6.2957931 1.1452746 -1.020654 10
-7.4406648 1.3535395 -0.93211597 9
-9.105113 1.6563212 -0.81093675 9
-10.030936 1.8247386 -0.5429095 3
-10.053425 1.8288295 -0.18009353 9
-25.149334 4.5749431 6.8346562 42
-25.242964 4.5919752 5.9140053 38
-25.294334 4.6013203 4.9940567 18
-24.469889 4.4513445 3.9296873 22
-25.810707 4.6952543 3.2104301 38
-25.87516 4.7069788 2.2979281 26
-25.937338 4.7182899 1.3972216 32
-13.181652 2.3978889 0.2327866 85
0.1 0.1 0.1 -1
-4.8377914 0.89575827 -1.138373 129
-5.4623876 1.0114076 -1.0839641 11
-6.282454 1.1632499 -1.0190789 10
-7.4266167 1.3751013 -0.93089271 9
-9.0900688 1.6831038 -0.81006384 9
-10.025154 1.8562427 -0.5429095 11
-10.598185 1.9623442 -0.18996167 7
-25.144337 4.6556883 6.8372393 52
-25.237995 4.6730299 5.9162517 44
-25.279755 4.6807618 4.9940567 17
-24.455784 4.5281968 3.9296873 17
-25.80559 4.7781248 3.2116449 41
-25.870039 4.7900581 2.2987986 33
-25.951845 4.8052053 1.3988093 27
-12.9381 2.3955996 0.22861728 29
0.1 0.1 0.1 -1
-4.815805 0.90734446 -1.1338646 129
-5.4495378 1.0267459 -1.082049 11
-6.2690639 1.1811526 -1.0175037 10
-7.4222598 1.3984259 -0.93089271 8
-9.0847368 1.7116528 -0.81006384 9
-9.9407673 1.8729372 -0.53865558 5
-10.641095 2.0048859 -0.19084275 3
-25.148573 4.7382355 6.8424053 43
-25.242342 4.7559023 5.9207435 48
-25.27457 4.7619748 4.9959636 19
-24.441439 4.6050043 3.9296873 22
-25.809959 4.8628473 3.2140741 40
-25.874443 4.8749967 2.3005395 53
-25.936621 4.8867116 1.3988093 29
-12.763474 2.4047627 0.22566402 27
0.1 0.1 0.1 -1
-4.8223376 0.92514485 -1.1361188 127
-5.4461031 1.0448116 -1.082049 11
-6.2748113 1.2037957 -1.0190789 10
-7.4078345 1.4211614 -0.92966944 8
-9.0496607 1.7361387 -0.80744511 9
-9.8952742 1.898366 -0.53652859 3
-10.644208 2.0420458 -0.19101897 3
-25.14221 4.8234253 6.8449883 45
-25.236002 4.8414187 5.9229898 43
-25.268282 4.8476119 4.9978704 20
-24.445435 4.6897521 3.9328086 22
-25.80344 4.9502797 3.2152889 32
-14.244966 2.7328358 1.2673422 130
-25.93008 4.974575 1.3993385 27
-12.598319 2.4169338 0.22288448 33
0.1 0.1 0.1 -1
-4.809845 0.93842447 -1.1338646 130
-5.4331608 1.0600363 -1.0801338 11
-6.2516136 1.2197205 -1.0159286 10
-7.3935924 1.4425262 -0.92844623 9
-9.0343838 1.7626528 -0.8065722 9
-9.9480677 1.9409169 -0.53971905 8
-10.686807 2.0850487 -0.19190006 21
-25.136414 4.9042382 6.8475714 44
-25.239796 4.924408 5.9274821 39
-25.272198 4.9307299 5.0016842 19
-24.43058 4.7665262 3.9328086 26
-25.797504 5.0332198 3.2165036 34
-14.23631 2.7775741 1.2673422 1
-14.299924 2.7899854 0.77217662 36
-12.433649 2.4258661 0.22010493 15
0.1 0.1 0.1 -1
-4.8070397 0.95269138 -1.1338646 127
-5.4299912 1.0761522 -1.0801338 10
-6.2382803 1.2363442 -1.0143536 10
-7.3892798 1.464457 -0.92844623 9
-9.0193424 1.7875139 -0.80569929 9
-10.020627 1.9859552 -0.54397297 3
-10.690381 2.1186914 -0.19207627 25
-25.140705 4.9825535 6.8527374 46
-25.225073 4.9992743 5.9274821 56
-25.267086 5.0076008 5.0035911 18
-24.445396 4.8447528 3.9374905 19
-25.811666 5.1155291 3.2201476 57
-14.159602 2.8062451 1.2612492 68
-14.291583 2.8324018 0.77217662 67
-117.69279 23.325146 2.084656 -1
0.1 0.1 0.1 -1
-4.8041916 0.96694994 -1.1338646 130
-5.4267745 1.0922586 -1.0801338 10
-6.2442656 1.2567966 -1.0159286 10
-7.3557124 1.4805 -0.92477649 8
-8.9944677 1.8103356 -0.80395341 8
-10.03427 2.019619 -0.54503649 2
-11.438792 2.3023102 -0.20564497 2
-25.144753 5.0609379 6.8579035 45
-25.229235 5.0779419 5.9319744 51
-25.271364 5.0864215 5.0074048 18
-24.440598 4.9192114 3.9390512 19
-25.796375 5.1920915 3.2201476 25
-13.711735 2.7597902 1.22208 1
-14.283116 2.8747933 0.77217662 30
-11.57607 2.3299403 0.20516489 54
0.1 0.1 0.1 -1
-4.8009586 0.98287588 -1.1338646 132
-5.4038916 1.1063113 -1.0763036 11
-6.2207146 1.2735353 -1.0127785 9
-7.3410397 1.5028937 -0.92355323 8
-8.9786549 1.8381544 -0.8030805 7
-10.007952 2.048877 -0.54397297 3
-11.431095 2.34023 -0.20564497 1
-25.137295 5.1462307 6.8604865 49
-25.221804 5.1635318 5.9342203 47
-25.254358 5.1701961 5.0074048 17
-24.453182 5.0061755 3.9437332 23
-116.69113 23.889582 14.576301 -1
-13.829383 2.8312192 1.2333955 19
-117.39688 24.034067 6.351007 -1
-11.499712 2.3542776 0.20394886 9
0.1 0.1 0.1 -1
-4.7787704 0.99398571 -1.1293561 127
-5.4003897 1.1232827 -1.0763036 10
-6.2166829 1.2930719 -1.0127785 13
-7.3459988 1.52797 -0.92477649 10
-8.8850584 1.8480948 -0.79522431 9
-10.001466 2.0803077 -0.54397297 3
-117.46722 24.433216 -2.1146011 -1
-25.139921 5.2291112 6.8656526 49
-25.214998 5.2447271 5.9364662 50
-25.266823 5.2555065 5.0131254 15
-24.447004 5.0849843 3.9452937 25
-17.939352 3.7313905 2.2423208 43
-13.166949 2.7387295 1.1750768 161
-13.726534 2.855123 0.7430678 110
-11.531415 2.3985379 0.20464374 167
0.1 0.1 0.1 -1
-4.7849798 1.0118428 -1.1316104 130
-5.3966351 1.1411848 -1.0763036 11
-6.2123604 1.3136801 -1.0127785 12
-7.3117609 1.5461618 -0.9211067 9
-8.5475073 1.8074754 -0.76554525 14
-10.014051 2.1175942 -0.54503649 15
-11.12228 2.351943 -0.20035847 8
-25.141346 5.3164468 6.8708186 48
-25.216534 5.332346 5.9409585 44
-25.268463 5.3433275 5.0169392 15
-24.449335 5.1701126 3.948415 21
-25.792952 5.454237 3.2262211 72
-13.118809 2.7741334 1.1715952 32
-12.974475 2.7436123 0.7028448 58
-11.454923 2.4222844 0.20342769 143
0.1 0.1 0.1 -1
-4.7817774 1.0268703 -1.1316104 133
-5.393023 1.1581331 -1.0763036 10
-6.1888928 1.3290434 -1.0096283 12
-7.3165712 1.5712085 -0.92232996 9
-8.5320463 1.8322276 -0.76467234 8
-117.15922 25.159538 -6.3809147 -1
-10.919325 2.3448875 -0.19683412 3
-25.133965 5.3974323 6.8734016 47
-25.209185 5.4135857 5.9432049 49
-25.26115 5.4247451 5.018846 13
-115.88761 24.886465 18.727659 -1
-25.804804 5.5414929 3.2298653 31
-13.110029 2.8153336 1.1715952 72
-12.985318 2.7885525 0.70390326 55
-11.408154 2.4498618 0.2027328 37
0.1 0.1 0.1 -1
-4.7787094 1.0410535 -1.1316104 133
-5.3895631 1.1741295 -1.0763036 10
-6.1752734 1.3452984 -1.0080533 12
-7.2924819 1.588685 -0.91988349 9
-8.5557728 1.863896 -0.76729107 7
-11.337639 2.4699323 -0.61788523 11
-10.785318 2.3496079 -0.1945433 1
-25.127279 5.4740391 6.8759847 47
-25.212053 5.4925075 5.9476972 46
-25.264128 5.5038514 5.0226598 12
-115.81326 25.230202 18.727659 -1
-25.788248 5.6180329 3.2298653 47
-12.897209 2.8096886 1.1533161 81
-12.879416 2.8058121 0.69861078 1
-11.400835 2.4836996 0.2027328 66
0.1 0.1 0.1 -1
-4.7660866 1.0531256 -1.1293561 130
-5.3956394 1.1922331 -1.0782187 10
-6.1712546 1.3636148 -1.0080533 11
-7.2780452 1.6081738 -0.91866022 10
-8.4626608 1.8699292 -0.75943482 12
-11.223003 2.479861 -0.61203611 30
-10.817351 2.3902273 -0.19524817 21
-25.129793 5.5527377 6.8811507 48
-25.205162 5.5693913 5.9499431 47
-25.266855 5.5830235 5.0264735 13
-25.770971 5.6944137 4.1700258 9
-25.79085 5.6988063 3.2322946 54
-12.820724 2.8328972 1.1472232 19
-12.880785 2.8461683 0.69914001 16
-11.403178 2.5196729 0.20290652 5
0.1 0.1 0.1 -1
-4.7623816 1.0697559 -1.1293561 130
-5.3627162 1.2046069 -1.0724733 10
-6.1471868 1.3808196 -1.0049031 12
-7.272387 1.6335691 -0.91866022 9
-8.4463625 1.8972747 -0.75856191 9
-11.019417 2.4752505 -0.60140121 15
-10.799187 2.425781 -0.19507195 20
-25.110256 5.6404233 6.8811507 44
-25.21409 5.6637468 5.9566813 45
-25.256792 5.6733384 5.0283804 14
-25.770212 5.7886662 4.1731467 9
-25.780485 5.7909741 3.2335093 29
-12.810758 2.8776326 1.1472232 149
-12.861029 2.8889248 0.69861078 15
-11.413824 2.5638447 0.20325397 15
0.1 0.1 0.1 -1
-4.7494984 1.0825469 -1.127102 128
-5.3684745 1.2236295 -1.0743884 10
-6.1524467 1.4023193 -1.0064782 13
-7.2672191 1.656408 -0.91866022 9
-8.4500723 1.9260142 -0.75943482 8
-10.982378 2.5031993 -0.59980601 17
-10.781764 2.4574735 -0.19489574 12
-25.101831 5.7214284 6.8837337 46
-25.196173 5.7429309 5.9566813 50
-25.248415 5.7548385 5.0302873 13
-25.761528 5.8717918 4.1747074 14
-25.762165 5.8719373 3.2335093 38
-12.772515 2.9112229 1.144612 16
-12.861626 2.9315338 0.69914001 19
-11.405714 2.5996895 0.20325397 14
0.1 0.1 0.1 -1
-4.7460737 1.0974627 -1.127102 130
-5.3550415 1.2382778 -1.0724733 10
-6.1383896 1.4194161 -1.0049031 13
-7.24264 1.6747583 -0.91621375 8
-8.4342747 1.950307 -0.75856191 8
-10.906356 2.5219409 -0.59608382 18
-10.783732 2.4935858 -0.19507195 29
-25.102558 5.8046126 6.8888998 44
-25.196993 5.8264494 5.9611735 47
-25.258904 5.840765 5.0360074 14
-25.733332 5.95047 4.1731467 13
-13.974263 3.2313514 1.7552295 1
-12.773012 2.9535789 1.1454823 45
-12.871811 2.9764247 0.70019853 15
-11.436456 2.6445191 0.20394886 1
0.1 0.1 0.1 -1
-4.7426028 1.1123674 -1.127102 128
-5.3415694 1.2528538 -1.0705582 10
-6.1242857 1.4364383 -1.003328 12
-7.2373428 1.6975034 -0.91621375 9
-8.4378042 1.9790691 -0.75943482 13
-10.849769 2.5447903 -0.5934251 16
-10.78558 2.5297348 -0.19524817 24
-25.10301 5.8878579 6.8940659 42
-25.188053 5.9078045 5.9634199 49
-25.240429 5.9200892 5.0360074 15
-25.733744 6.0357952 4.1762681 13
-115.96437 27.199198 14.576301 -1
-12.773369 2.9959667 1.1463528 5
-12.862397 3.0168478 0.70019853 15
-116.81184 27.39797 2.084656 -1
0.1 0.1 0.1 -1
-4.7296066 1.1250067 -1.1248478 130
-5.3376069 1.2696286 -1.0705582 10
-6.1197429 1.4556712 -1.003328 11
-7.2223191 1.7179352 -0.91499048 8
-8.4315453 2.0055676 -0.75943482 8
-10.841721 2.5788634 -0.5934251 15
-10.787306 2.5659199 -0.19542439 21
-25.103186 5.9711633 6.8992319 50
-25.188328 5.9914155 5.9679122 54
-25.240807 6.0038981 5.0398211 13
-25.743483 6.1234674 4.1809502 14
-13.461202 3.2019455 1.6932802 73
-12.783278 3.0406911 1.1480936 20
-12.862571 3.0595522 0.70072776 14
-11.497431 2.7348337 0.20533863 20
0.1 0.1 0.1 -1
-4.7355199 1.142144 -1.127102 129
-5.3335919 1.2863909 -1.0705582 10
-6.1151395 1.4748898 -1.003328 11
-7.2072382 1.7382892 -0.91376722 9
-8.4155188 2.0297103 -0.75856191 9
-10.794736 2.6035454 -0.5912981 22
-10.779191 2.5997965 -0.19542439 19
-25.103085 6.0545278 6.904398 44
-25.178854 6.0728021 5.9701581 45
-25.231363 6.0854664 5.041728 22
-25.733721 6.2066283 4.1825109 14
-13.306337 3.2093101 1.6750598 24
-12.802714 3.0878432 1.1507049 69
-12.862603 3.1022873 0.70125699 14
-11.488783 2.7709403 0.20533863 40
0.1 0.1 0.1 -1
-4.7224445 1.1547012 -1.1248478 131
-5.3104563 1.2984781 -1.0667279 10
-6.091291 1.4894027 -1.0001779 11
-7.1921005 1.7585654 -0.91254395 9
-8.2833033 2.0253792 -0.74721408 39
-10.747703 2.6279581 -0.58917111 15
-10.77097 2.6336474 -0.19542439 23
-25.083941 6.1333613 6.904398 44
-25.169117 6.1541882 5.972404 56
-18.403704 4.4999533 3.6802328 66
-18.460417 4.5138206 3.0026681 22
-13.296189 3.2510972 1.6750598 29
-12.821981 3.1351471 1.1533161 8
-12.852794 3.1426811 0.70125699 13
-14.685102 3.5907054 0.26266667 1
0.1 0.1 0.1 -1
-4.7093372 1.1671878 -1.1225935 125
-5.3063507 1.3151549 -1.0667279 9
-6.0961671 1.5109073 -1.001753 12
-7.1769071 1.7787638 -0.91132075 9
-8.3059072 2.0585814 -0.74983281 7
-10.739394 2.66171 -0.58917111 20
-10.772348 2.6698778 -0.19560061 13
-25.092678 6.2191067 6.912147 43
-25.168575 6.2379169 5.9768963 50
-25.211685 6.2486019 5.0455418 1
-18.426971 4.5670409 2.999547 86
-13.382255 3.316731 1.6872067 20
-12.937773 3.206568 1.1646317 90
-12.862243 3.1878483 0.70231551 15
-14.722274 3.6488488 0.26353526 30
0.1 0.1 0.1 -1
-4.715096 1.1843503 -1.1248478 128
-5.3021932 1.3318188 -1.0667279 10
-6.0818124 1.5276457 -1.0001779 9
-7.1616573 1.798884 -0.91009748 8
-8.222105 2.0652502 -0.74284947 8
-10.730979 2.6954355 -0.58917111 18
-10.773605 2.7061424 -0.19577682 23
-25.091757 6.3026137 6.9173131 39
-25.177208 6.3240771 5.9836349 45
-25.249056 6.3421245 5.056983 22
-25.731562 6.4633217 4.1918745 5
-13.285127 3.336993 1.6762745 12
-12.773045 3.2083669 1.1507049 14
-12.852164 3.2282405 0.70231551 14
-14.720435 3.6975179 0.26370898 20
0.1 0.1 0.1 -1
-4.7019105 1.1967542 -1.1225935 128
-5.3074946 1.3508905 -1.0686431 10
-6.0674133 1.5443089 -0.99860275 9
-7.1559711 1.8213742 -0.91009748 9
-8.1383448 2.0714128 -0.73586619 12
-10.761168 2.738987 -0.5912981 17
-10.774739 2.7424417 -0.19595304 18
-25.071833 6.3814106 6.9173131 46
-25.166658 6.4055462 5.9858809 42
-25.229006 6.4214153 5.056983 14
-25.720701 6.5465641 4.1934352 20
-13.303435 3.3860581 1.6799186 45
-12.772556 3.250936 1.1515753 8
-12.841959 3.2686007 0.70231551 14
-14.708747 3.7437451 0.26370898 18
0.1 0.1 0.1 -1
-4.6886935 1.209087 -1.1203394 128
-5.2937202 1.3651069 -1.0667279 10
-6.072094 1.5658284 -1.0001779 10
-7.1309924 1.8388897 -0.90765101 9
-8.0546265 2.07707 -0.72888285 11
-10.771849 2.7777677 -0.59236157 17
-10.775753 2.7787745 -0.19612926 20
-25.089079 6.4697933 6.9276452 42
-25.174719 6.4918776 5.992619 44
-25.227718 6.5055451 5.0607967 16
-25.728703 6.6347346 4.1981173 16
-13.302343 3.4303138 1.6811333 30
-14.04526 3.621892 1.2673422 63
-12.841296 3.3114223 0.7028448 13
-14.706594 3.7924321 0.2638827 17
0.1 0.1 0.1 -1
-4.6942983 1.2262734 -1.1225935 129
-5.2894053 1.3817309 -1.0667279 9
-6.0480356 1.5799049 -0.9970277 9
-7.1059752 1.8562663 -0.90520447 8
-7.990231 2.0872571 -0.72364539 9
-10.801715 2.8216901 -0.59448856 18
-10.795991 2.820195 -0.19665791 26
-25.06863 6.5485811 6.9276452 50
-25.173056 6.5758595 5.9971113 46
-25.216656 6.5872488 5.0627036 19
-25.717289 6.7180276 4.1996779 15
-13.301105 3.474596 1.682348 31
-14.05309 3.6710343 1.269083 17
-12.850153 3.3567958 0.70390326 14
-14.704282 3.8411424 0.26405644 12
0.1 0.1 0.1 -1
-4.680788 1.2393398 -1.1203394 133
-5.2753067 1.3967515 -1.0648128 9
-6.0427632 1.5999522 -0.9970277 10
-7.1093745 1.8823607 -0.90642774 9
-7.9447455 2.1035433 -0.72015375 8
-8.4176064 2.2287433 -0.46367982 10
-14.730061 3.9001021 -0.26855436 11
-25.074793 6.6390939 6.9353938 46
-25.16995 6.6642885 6.0016036 47
-25.213652 6.6758595 5.0665174 17
-25.713966 6.8083286 4.2027988 17
-13.116794 3.4729548 1.6604836 1
-14.0601 3.7227154 1.2708238 37
-12.848604 3.4019458 0.70443255 16
-14.701129 3.8924417 0.26423016 17
0.1 0.1 0.1 -1
-4.6768713 1.2540388 -1.1203394 126
-5.2803726 1.4158593 -1.0667279 9
-6.0377073 1.6189282 -0.9970277 10
-7.0938396 1.9021157 -0.90520447 9
-7.9092321 2.1207521 -0.71753502 8
-8.3526926 2.2396598 -0.46048936 11
-115.88768 31.07369 -2.1146011 -1
-25.072474 6.7228394 6.9405599 46
-25.158302 6.7458529 6.0038495 44
-25.211517 6.7601218 5.0703311 19
-25.70199 6.8916359 4.2043595 16
-13.096231 3.5115745 1.6592689 23
-14.038713 3.7642879 1.2699535 5
-12.847499 3.4448805 0.70496178 15
-14.698484 3.9411969 0.26440388 13
0.1 0.1 0.1 -1
-4.67313 1.2679099 -1.1203394 122
-5.2572036 1.4263802 -1.0628977 10
-6.0233464 1.6342494 -0.99545258 9
-7.0690074 1.9179574 -0.902758 9
-7.8740625 2.1363842 -0.71491623 9
-8.3267355 2.2592032 -0.45942587 8
-12.573404 3.4114058 -0.22961044 23
-25.071064 6.8022609 6.9457259 50
-25.156984 6.8255725 6.0083418 50
-25.210297 6.8400373 5.0741448 20
-25.700495 6.9730377 4.2074809 19
-12.788787 3.4698431 1.6216134 29
-14.046711 3.8111422 1.2716943 13
-12.846859 3.4855993 0.70549101 15
-14.686727 3.9847908 0.26440388 20
0.1 0.1 0.1 -1
-4.6693473 1.2817698 -1.1203394 126
-5.2529483 1.4419723 -1.0628977 9
-6.0089483 1.6494998 -0.99387753 9
-7.0632858 1.9389231 -0.902758 9
-7.8580823 2.1571004 -0.71404332 8
-8.3199959 2.2838991 -0.45942587 9
-115.70125 31.76083 -2.1146011 -1
-25.069403 6.8817325 6.950892 47
-25.146019 6.9027643 6.0105882 47
-25.208824 6.9200044 5.0779586 17
-25.708267 7.0571055 4.212163 18
-12.711432 3.4893801 1.6131105 15
-14.035341 3.8528028 1.2716943 26
-12.84609 3.5263448 0.7060203 17
-10.393874 2.8531938 0.1872716 15
0.1 0.1 0.1 -1
-4.6460729 1.2928374 -1.115831 127
-5.2478828 1.4602997 -1.0628977 10
-6.0031538 1.6704649 -0.99387753 10
-7.0469131 1.960906 -0.90153474 8
-7.8217134 2.1765056 -0.71142459 11
-8.2831116 2.3048964 -0.45783064 8
-115.58968 32.164509 -2.1146011 -1
-25.063843 6.9743791 6.956058 45
-25.149935 6.9983354 6.0173264 47
-25.203428 7.0132208 5.0817723 18
-25.683477 7.1468015 4.212163 21
-12.670486 3.5257473 1.6094666 20
-13.993014 3.89376 1.269083 12
-12.852943 3.5765185 0.70707875 26
-10.374219 2.8867774 0.18709788 15
0.1 0.1 0.1 -1
-4.6513662 1.3100682 -1.1180851 130
-5.2338219 1.4741184 -1.0609825 10
-5.9978762 1.689316 -0.99387753 9
-7.0311646 1.9803442 -0.90031147 9
-7.7860708 2.1929653 -0.70880586 10
-8.2758303 2.3309071 -0.45783064 6
-10.673021 3.0060818 -0.19542439 1
-25.060406 7.0583229 6.9612241 42
-25.137203 7.0799532 6.0195723 51
-25.190722 7.0950265 5.0836792 19
-25.679914 7.2328086 4.2152843 17
-12.535143 3.5305526 1.5936755 18
-13.8177 3.8917882 1.2542858 18
-10.438642 2.9400682 0.57476616 10
-10.365098 2.9193544 0.18709788 59
0.1 0.1 0.1 -1
-4.6378579 1.3220038 -1.115831 126
-5.2291651 1.4905536 -1.0609825 10
-5.9830427 1.7054435 -0.99230242 10
-7.0249085 2.0024235 -0.90031147 9
-7.7504025 2.2092228 -0.70618713 11
-8.2588634 2.3541574 -0.4572989 7
-10.673141 3.0423379 -0.19560061 30
-25.056688 7.142314 6.9663901 49
-25.133579 7.1642313 6.0240645 48
-25.187187 7.179512 5.0874929 15
-25.685562 7.3215718 4.2199659 20
-12.390349 3.531822 1.5766698 19
-13.642539 3.8887539 1.2394885 20
-10.304509 2.9372611 0.56788588 31
-10.269337 2.9272354 0.18553439 17
0.1 0.1 0.1 -1
-4.624321 1.3338674 -1.1135768 127
-5.2150259 1.504254 -1.0590674 10
-5.9681668 1.7214944 -0.99072737 11
-6.9995108 2.0189817 -0.897865 9
-7.7147088 2.2252777 -0.7035684 10
-8.2418318 2.3773243 -0.45676714 5
-10.029482 2.8929651 -0.1839703 1
-25.052692 7.2263513 6.9715562 44
-25.139036 7.2512574 6.0308032 48
-25.183372 7.2640457 5.0913067 18
-25.690905 7.4104414 4.224648 15
-12.131227 3.4992051 1.5450878 16
-13.438818 3.8763747 1.22208 19
-9.9881964 2.8810563 0.55094987 14
-10.183235 2.9373145 0.18414462 43
0.1 0.1 0.1 -1
-4.6294603 1.3511181 -1.115831 128
-5.2008529 1.5178802 -1.0571523 10
-5.9532495 1.7374688 -0.98915225 9
-7.0026608 2.0437419 -0.89908826 8
-7.6694283 2.2383394 -0.7000767 11
-8.2247372 2.4004073 -0.45623541 6
-115.17637 33.614475 -2.1146011 -1
-25.066961 7.3158469 6.9818883 42
-25.134842 7.3356581 6.035295 50
-25.179274 7.3486261 5.09512 17
-25.676979 7.4938827 4.2262087 17
-11.967719 3.4928048 1.5256528 14
-13.283128 3.8767097 1.2090236 22
-9.7777891 2.8536689 0.53983557 15
-10.087574 2.9440806 0.18258113 11
0.1 0.1 0.1 -1
-4.615849 1.3628963 -1.1135768 126
-5.1960583 1.5342116 -1.0571523 10
-5.9477615 1.7561629 -0.98915225 9
-6.9866872 2.0629208 -0.897865 9
-114.64876 33.851707 -10.474963 -1
-8.1405382 2.4036119 -0.45198146 4
-115.0702 33.976143 -2.1146011 -1
-25.05312 7.3972969 6.9844713 38
-25.130363 7.420104 6.0397873 49
-25.174892 7.4332523 5.0989337 15
-25.435429 7.510179 4.1903138 13
-11.880529 3.5078988 1.5159352 7
-13.10846 3.8704631 1.1942263 20
-9.4910355 2.802366 0.52448732 13
-9.1672993 2.706778 0.1660776 12
0.1 0.1 0.1 -1
-4.6208797 1.3801789 -1.115831 128
-5.1912131 1.5505279 -1.0571523 12
-5.9422154 1.7748396 -0.98915225 10
-6.9801717 2.0848598 -0.897865 9
-7.3974938 2.209507 -0.67650807 10
-8.1425152 2.4320321 -0.45251322 4
-10.250857 3.0617585 -0.18855193 6
-25.048269 7.4814963 6.9896374 42
-25.125601 7.5045943 6.0442796 34
-25.179634 7.5207329 5.1046543 15
-25.24135 7.5391665 4.1622224 1
-11.812387 3.5281608 1.5086471 35
-12.933966 3.8631577 1.1794291 8
-9.1568632 2.7350008 0.50649279 9
-9.1300097 2.7269802 0.16555643 19
0.1 0.1 0.1 -1
-4.6071944 1.3918715 -1.1135768 126
-5.1769209 1.5639905 -1.0552372 10
-5.9271569 1.790643 -0.9875772 11
-6.9735875 2.1067784 -0.897865 9
-7.4286609 2.2442596 -0.67999971 1
-114.70977 34.654766 -6.3809147 -1
-10.088049 3.0476828 -0.18573247 3
-25.043137 7.5657387 6.9948034 40
-25.111229 7.5863094 6.046526 38
-25.174677 7.6054778 5.1084681 15
-17.31283 5.2303486 2.8575289 50
-10.024405 3.0284557 1.2814997 8
-10.07993 3.0452302 0.92004168 1
-9.1004286 2.7493148 0.50384653 14
-9.0926838 2.7469747 0.16503526 10
0.1 0.1 0.1 -1
-4.5934815 1.4034916 -1.1113225 127
-5.1719818 1.5802466 -1.0552372 11
-5.9215021 1.8092549 -0.9875772 11
-6.9669347 2.1286762 -0.897865 8
-7.4120464 2.2646756 -0.6791268 11
-8.0506735 2.4598014 -0.44825926 8
-9.9445553 3.0384579 -0.18326543 26
-25.028484 7.6471992 6.9973865 39
-25.115231 7.6737032 6.0532641 34
-25.169436 7.6902657 5.1122818 14
-25.202929 7.7004991 4.1637831 10
-9.9009295 3.0251284 1.2669234 10
-9.9655142 3.0448616 0.91046697 3
-8.9771452 2.7428756 0.49749553 13
-9.0266361 2.757997 0.16399294 12
0.1 0.1 0.1 -1
-4.5983582 1.4207916 -1.1135768 128
-5.1669917 1.5964869 -1.0552372 10
-5.906354 1.8249336 -0.98600209 10
