# .PCD v0.7 - Point Cloud Data file format
VERSION 0.7
FIELDS x y z intensity
SIZE 4 4 4 4
TYPE F F F F
COUNT 1 1 1 1
WIDTH 1384
HEIGHT 1
VIEWPOINT 0 0 0 1 0 0 0
POINTS 1384
DATA ascii
-3.494004 9.4505892 2.3224769 124
-3.51983 9.520443 1.9716895 175
-3.5348368 9.5610332 1.6105788 210
-3.538419 9.5707226 1.248703 131
-3.5443766 9.5868368 0.89305842 152
-3.4905624 9.4412804 0.53348458 6
-1.8098764 4.8953576 0.090682536 3
-0.93647426 2.557653 -0.73063511 33
-0.92787832 2.5341761 -0.6244145 23
-0.98538154 2.6912262 -0.55921823 21
-1.6229624 4.4325557 -0.75288975 45
-1.6004227 4.3709965 -0.57370394 8
-1.7296814 4.7240214 -0.44082138 12
-1.7132524 4.6791515 -0.2653397 6
-1.7154133 4.6850533 -0.087932162 4
-5.8758345 16.047794 4.5693526 206
-3.4575963 9.4432182 2.3179846 118
-3.4831531 9.5130177 1.9678757 173
-3.4979904 9.5535412 1.6074575 219
-3.5083342 9.5817919 1.248703 128
-3.5039656 9.5698605 0.89044714 1
-3.4505842 9.4240675 0.53189683 5
-1.7944883 4.9010191 0.090682536 4
-0.93831152 2.5878224 -0.73840779 33
-0.92655438 2.5553968 -0.62892294 54
-0.98026758 2.7035356 -0.56113333 22
-1.5955644 4.4004974 -0.74658942 14
-1.6035985 4.4226556 -0.57982016 12
-1.7148318 4.7294321 -0.44082138 6
-1.7019479 4.6938987 -0.26587147 6
-1.7177273 4.7374177 -0.088813245 5
-5.8155112 16.038927 4.5616035 194
-3.4312341 9.4631948 2.3202307 90
-3.4499037 9.5146847 1.9659688 137
-3.461226 9.5459108 1.6043363 151
-3.4409966 9.4901199 1.2353414 1
-3.4399259 9.4871674 0.88174289 1
-3.4175568 9.4254732 0.5313676 4
-1.7858989 4.9254317 0.091029979 4
-0.9334408 2.599848 -0.74099869 32
-0.92181396 2.5674646 -0.63117713 35
-0.97176939 2.7066019 -0.56113333 20
-1.578395 4.396194 -0.74501437 40
-1.5930502 4.4370127 -0.58104342 8
-1.7066981 4.7535477 -0.4425672 10
-1.6939421 4.7180195 -0.26693493 5
-1.76703 4.921586 -0.092161365 3
-3.3852792 9.4287834 2.678586 203
-3.3981948 9.464757 2.3179846 168
-3.3735552 9.3961296 1.9392729 1
-3.3878286 9.4358845 1.5840479 1
-3.4078114 9.4915409 1.2341268 1
-3.4336686 9.5635595 0.88783586 31
-3.387929 9.4361639 0.5313676 7
-1.773795 4.9404283 0.091203704 3
-0.92850375 2.6118681 -0.74358964 33
-0.92027026 2.5887074 -0.6356855 36
-0.96326154 2.7096415 -0.56113333 23
-1.5645761 4.4011312 -0.74501437 19
-1.5957253 4.4887533 -0.58715963 10
-1.6984295 4.7776589 -0.44431302 8
-1.6824564 4.7327266 -0.26746669 5
-1.7582579 4.9459548 -0.0925138 5
-3.3265181 9.3574495 2.655339 1
-3.3619158 9.4570227 2.3134923 158
-3.3604603 9.4529285 1.9488072 1
-3.3680937 9.4744015 1.5887299 1
-3.3946002 9.5489626 1.2402002 8
-3.4036069 9.5742989 0.88783586 11
-3.351578 9.4279423 0.53030908 9
-1.7616146 4.9553976 0.091377422 3
-0.92624736 2.6331553 -0.74877143 28
-0.92137945 2.6193168 -0.64244813 31
-0.95427078 2.7128208 -0.56113333 20
-1.5466959 4.3969798 -0.74343926 21
-1.5907115 4.5221076 -0.59082943 9
-1.6858826 4.7926621 -0.44518593 8
-1.6766938 4.7665401 -0.26906192 4
-1.755118 4.9894862 -0.093218669 3
-3.2954693 9.3684292 2.655339 17
-3.3240695 9.4497347 2.3090003 37
-3.3421245 9.5010614 1.9564346 16
-39.331909 111.81358 18.727659 -1
-39.524967 112.3624 14.576301 -1
-39.66869 112.77098 10.445127 -1
-3.313668 9.4201641 0.52925056 9
-1.74849 4.970644 0.091551147 4
-0.92432326 2.6542947 -0.75395322 37
-0.91955417 2.6405997 -0.64695656 22
-0.94251567 2.7065363 -0.55921823 21
-1.5328748 4.4018168 -0.74343926 20
-1.5960808 4.5833197 -0.59816891 10
-1.6740937 4.8073425 -0.44605887 8
-1.664995 4.7812142 -0.26959366 5
-1.7460108 5.0138597 -0.093571104 5
-38.124763 109.4794 30.996174 -1
-3.2911613 9.4509277 2.3067541 33
-38.73988 111.24578 22.882277 -1
-38.980446 111.93658 18.727659 -1
-39.171776 112.48602 14.576301 -1
-5.6677995 16.275703 1.5058392 37
-3.2774892 9.4116669 0.5281921 6
-1.739442 4.994997 0.09189859 7
-0.9191277 2.6663167 -0.75654411 27
-0.91760415 2.6618972 -0.65146494 25
-0.93400824 2.7094841 -0.55921823 20
-1.5222569 4.415947 -0.74501437 20
-1.6010811 4.6446095 -0.60550839 9
-1.6687224 4.8408318 -0.4486776 8
-1.718308 4.9846759 -0.28076026 7
-1.7302506 5.0193205 -0.093571104 5
-37.780636 109.59863 30.996174 -1
-3.2551029 9.4427958 2.3022618 44
-5.5601807 16.129644 3.3141162 121
-3.2834303 9.524972 1.5918511 128
-3.2898421 9.5435724 1.2353414 79
-5.6036534 16.255756 1.5023576 35
-3.2446511 9.4124765 0.52766281 4
-1.7335167 5.0287948 0.092419751 7
-0.92010367 2.6966143 -0.76431686 33
-0.91552931 2.683208 -0.65597337 31
-0.93183053 2.730983 -0.56304848 20
-1.5083764 4.4207077 -0.74501437 20
-1.6121218 4.724762 -0.6152944 8
-1.6599402 4.8649068 -0.45042342 9
-1.7155385 5.0278525 -0.28288722 5
-1.7177023 5.034194 -0.093747318 5
-5.4781542 16.055223 4.5357738 219
-3.2222745 9.4437532 2.3000157 138
-3.2429221 9.5042658 1.950714 127
-3.2566805 9.544589 1.5934118 135
-3.2630494 9.5632544 1.2365562 74
-5.5429058 16.244995 1.4997463 57
-3.215065 9.4226236 0.52766281 3
-1.7273961 5.0626044 0.092940912 7
-0.917808 2.7177932 -0.76949865 31
-0.9133296 2.7045319 -0.66048175 32
-0.92324626 2.733897 -0.56304848 19
-1.4944808 4.4254246 -0.74501437 19
-1.6131481 4.7768192 -0.62141067 9
-1.651023 4.8889737 -0.45216924 8
-1.7125145 5.0710611 -0.28501418 4
-1.7050774 5.0490384 -0.093923531 5
-5.4153247 16.035742 4.5254416 225
-3.1863549 9.4353647 2.2955236 129
-3.2099068 9.5051069 1.9488072 132
-3.2203586 9.5360565 1.5902904 158
-3.2266378 9.5546503 1.2341268 77
-5.488656 16.25289 1.4988759 74
-3.1790571 9.4137554 0.52660435 4
-1.724279 5.1058979 0.093635798 7
-0.91844982 2.7481446 -0.77727139 36
-0.9110049 2.7258682 -0.66499019 29
-0.91776401 2.7460928 -0.56496364 17
-1.4805706 4.4300976 -0.74501437 16
-1.5918415 4.7630372 -0.61896414 8
-1.6388134 4.903585 -0.45304218 10
-1.6997402 5.085887 -0.28554595 4
-1.6955456 5.0733361 -0.094275966 3
-5.3587961 16.034351 4.5202756 227
-3.156697 9.4453287 2.2955236 131
-3.1800299 9.5151434 1.9488072 141
-3.1872535 9.5367584 1.5887299 158
-3.1871662 9.5364971 1.2304827 62
-5.4312534 16.251156 1.4971349 82
-3.146302 9.4142246 0.52607507 4
-3.1534114 9.4354982 0.17285272 3
-0.91284442 2.7601867 -0.77986228 34
-0.91161418 2.7564666 -0.67175281 32
-0.90605062 2.7396438 -0.56304848 19
-1.463545 4.4253511 -0.74343926 17
-1.5706375 4.7491689 -0.61651766 7
-1.6296562 4.9276252 -0.454788 13
-1.690025 5.1101637 -0.28660941 4
-1.6827382 5.0881305 -0.094452187 4
-5.3053627 16.041935 4.5176926 225
-3.1239486 9.4459476 2.2932775 126
-3.1408744 9.4971266 1.9430866 141
-3.1510742 9.5279684 1.5856086 162
-3.1571908 9.546463 1.2304827 72
-5.3707886 16.239763 1.4945236 56
-3.1135752 9.4145823 0.52554584 4
-3.1206141 9.4358654 0.17267901 2
-0.90416855 2.7630408 -0.77986228 33
-0.90597999 2.7685764 -0.674007 35
-0.89438677 2.7331486 -0.56113333 20
-1.4496351 4.4299273 -0.74343926 16
-1.5618832 4.7729449 -0.61896414 8
-1.620364 4.9516559 -0.45653382 6
-1.680174 5.134429 -0.28767291 4
-1.6698548 5.1028943 -0.094628401 4
-5.2459259 16.030979 4.5099435 210
-3.0881965 9.4371929 2.2887852 127
-3.10797 9.4976177 1.9411798 143
-3.1180537 9.5284328 1.5840479 170
-3.1240971 9.5469007 1.229268 73
-5.3166451 16.247089 1.4936533 68
-3.0808775 9.4148264 0.52501655 4
-3.0878453 9.43612 0.17250529 2
-0.91035891 2.8118122 -0.79281682 28
-0.90628058 2.7992156 -0.68076962 28
-0.88881916 2.7452826 -0.56304848 19
-1.4387528 4.4438548 -0.74501437 17
-1.5407667 4.7589436 -0.61651766 8
-1.6385529 5.0609746 -0.46613586 9
-1.6640354 5.1396818 -0.28767291 4
-1.656895 5.1176276 -0.094804622 4
-5.1866102 16.019808 4.5021944 219
-3.055532 9.4375772 2.2865391 121
-3.0781169 9.5073347 1.9411798 142
-3.0820191 9.5193872 1.5809267 165
-3.0910318 9.547225 1.2280533 65
-5.2563715 16.235277 1.491042 69
-3.0451329 9.4054575 0.52395809 4
-3.0520263 9.4267492 0.17215784 3
-0.90741313 2.8330548 -0.79799861 29
-0.90342575 2.8206055 -0.685278 36
-0.88917172 2.7761028 -0.56879389 21
-1.4187604 4.4295435 -0.7418642 17
-1.5288359 4.7732124 -0.61774087 8
-1.6560706 5.170455 -0.47573793 5
-1.6539724 5.1639042 -0.2887364 3
-1.6530087 5.1608953 -0.095509484 5
-5.1333103 16.026821 4.4996114 210
-3.0199232 9.4285698 2.2820468 126
-3.0452392 9.5076094 1.9392729 142
-3.0520978 9.5290222 1.5809267 170
-3.0579956 9.5474358 1.2268386 70
-5.2053409 16.251711 1.491042 76
-3.0155699 9.414978 0.52395809 4
-3.0223963 9.4362907 0.17215784 3
-0.91017735 2.8727212 -0.80836225 43
-0.90044534 2.842005 -0.68978643 27
-0.88341045 2.788239 -0.57070899 23
-1.4078203 4.4433928 -0.74343926 17
-1.5138328 4.7779918 -0.61774087 8
-1.6518544 5.2136183 -0.47922957 16
-1.6377414 5.169075 -0.2887364 4
-1.639807 5.1755943 -0.095685706 5
-5.0741816 16.015242 4.4918623 199
-2.9873445 9.4287214 2.2798007 115
-3.0123904 9.5077715 1.937366 143
-3.0191631 9.5291481 1.579366 162
-3.0249882 9.547533 1.225624 74
-5.1632857 16.296474 1.4936533 131
-2.9829609 9.4148855 0.5234288 4
-2.9897165 9.4362078 0.17198412 4
-0.90403622 2.884783 -0.81095314 29
-0.8973394 2.8634136 -0.69429481 60
-0.88051671 2.8097322 -0.57453924 36
-1.393854 4.4477935 -0.74343926 20
-1.4988149 4.7827239 -0.61774087 8
-1.6384462 5.2282882 -0.48010248 5
-1.6274666 5.1932521 -0.28979987 4
-1.6354991 5.218884 -0.096390568 4
-5.0209541 16.021885 4.4892793 203
-2.9547946 9.4287605 2.2775548 106
-2.9795704 9.5078211 1.9354591 145
-2.9862578 9.5291605 1.5778054 166
-2.9890425 9.5380459 1.2231945 63
-2.9939535 9.5537167 0.87477946 139
-2.9503822 9.4146814 0.52289957 4
-2.9540772 9.4264717 0.17163669 7
-0.90068763 2.9060602 -0.81613493 40
-0.89410776 2.8848302 -0.69880325 16
-0.87749654 2.8312345 -0.57836956 34
-1.379874 4.4521508 -0.74343926 28
-1.4837822 4.7874093 -0.61774087 8
-1.6279112 5.25244 -0.48184833 14
-1.617056 5.2174158 -0.29086336 4
-1.6279753 5.2526474 -0.096919216 4
-4.9677353 16.028353 4.4866962 197
-2.9222739 9.42869 2.2753086 141
-2.94678 9.5077581 1.9335524 142
-2.9563065 9.5384951 1.5778054 179
-2.9561245 9.5379086 1.2219799 71
-2.9668739 9.5725908 0.87564987 116
-2.9178343 9.4143648 0.52237034 3
-2.9214885 9.4261551 0.17146295 5
-0.89721417 2.9273446 -0.82131672 25
-0.89075029 2.9062548 -0.70331162 49
-0.87434995 2.8527453 -0.58219981 28
-1.3658804 4.4564638 -0.74343926 29
-1.4716431 4.8015361 -0.61896414 9
-1.6055638 5.2384796 -0.48010248 12
-1.6035832 5.2320175 -0.2913951 6
-1.6231854 5.2959738 -0.097624086 5
-4.9060326 16.006933 4.4763641 199
-2.8897829 9.4285069 2.2730625 112
-2.9082661 9.4888124 1.9278318 141
-2.9205368 9.5288477 1.5746841 173
-2.9261458 9.5471478 1.2219799 76
-2.9367862 9.5818644 0.87564987 125
-2.8853176 9.4139376 0.52184105 4
-2.8860011 9.4161682 0.17111552 4
-0.89361584 2.9486353 -0.82649857 49
-0.88726705 2.9276865 -0.70782006 21
-0.88246346 2.9118361 -0.59369057 17
-1.3518733 4.4607329 -0.74343926 26
-1.4507943 4.7871394 -0.61651766 9
-1.5659845 5.1672287 -0.47311917 7
-1.5987234 5.2752562 -0.29352209 5
-1.6210392 5.3488903 -0.098505169 7
-4.8501172 16.003777 4.4711981 194
-2.8601482 9.4375391 2.2730625 135
-2.881289 9.5072966 1.9297386 144
-2.8791275 9.500164 1.5684415 165
-2.8903804 9.5372953 1.2195505 69
-2.90378 9.5815096 0.87477946 128
-2.8528323 9.4133987 0.52131182 4
-2.8535054 9.4156189 0.1709418 4
-0.89266479 2.9791846 -0.83427125 27
-0.88645422 2.9584575 -0.71458268 45
-0.87894559 2.933398 -0.59752083 12
-1.3406873 4.4744172 -0.74501437 19
-1.435748 4.7916732 -0.61651766 8
-1.5440248 5.1530375 -0.47137335 8
-1.6108049 5.3759093 -0.29883951 8
-1.9428654 6.4841299 -0.11929875 2
-4.7998161 16.018934 4.4711981 194
-2.8248913 9.4278088 2.2685702 128
-2.8485892 9.5068979 1.9278318 142
-2.8549378 9.5280857 1.5715628 177
-2.8575549 9.5368204 1.2183357 61
-2.8708053 9.5810413 0.873909 133
-2.820379 9.4127493 0.52078259 3
-2.8210413 9.4149599 0.17076807 3
-0.89100522 3.0099123 -0.842044 51
-0.87940419 2.9707227 -0.71683687 24
-0.87478513 2.9551189 -0.60135108 10
-1.3230392 4.4693699 -0.74343926 10
-1.4198502 4.7964082 -0.61651766 8
-1.5297559 5.1676812 -0.47224626 7
-1.6694994 5.63975 -0.31319657 4
-1.9327047 6.5288858 -0.12000362 28
-4.7411847 16.016235 4.466032 194
-2.7880802 9.418437 2.2640779 132
-2.8142612 9.5068789 1.9259249 152
-2.8205221 9.5280294 1.5700022 170
-2.8259139 9.5462437 1.2183357 64
-2.8333621 9.5714045 0.87216818 96
-2.7863152 9.4124746 0.5202533 3
-2.7898047 9.424263 0.17076807 3
-0.8869698 3.0312362 -0.84722579 32
-0.88101131 3.0108728 -0.72585368 62
-0.87100977 2.9766924 -0.60518134 10
-1.3089917 4.4735041 -0.74343926 10
-1.4047749 4.8008451 -0.61651766 8
-1.5079184 5.1533399 -0.47050044 8
-1.6517735 5.6449671 -0.31319657 5
-1.9037604 6.5061374 -0.11947496 2
-4.6827059 16.003237 4.4582829 206
-2.7584777 9.4271498 2.2640779 127
-2.7733533 9.4779873 1.9182975 152
-2.7822533 9.5084038 1.5653203 179
-2.7875471 9.526495 1.2146916 77
-2.7976835 9.5611362 0.87042731 114
-2.753927 9.4115982 0.51972407 3
-2.7545679 9.4137888 0.17042063 5
-0.8854925 3.0618427 -0.85499853 50
-0.87696135 3.0323439 -0.73036212 31
-0.86710739 2.998271 -0.60901165 10
-1.2921878 4.4681077 -0.7418642 16
-1.3841711 4.7861662 -0.61407113 9
-1.4944888 5.1676211 -0.47137335 7
-1.6423539 5.6789064 -0.3147918 6
-1.8916446 6.5409007 -0.12000362 14
-4.6324072 16.017868 4.4582829 188
-2.7234335 9.4170475 2.2595859 126
-2.7462909 9.4960833 1.9202044 146
-2.7578564 9.5360746 1.5684415 177
-2.7576048 9.5352049 1.2146916 70
-2.7676325 9.5698786 0.87042731 99
-2.7187974 9.4010172 0.51866555 3
-2.7249801 9.4223957 0.17042063 6
-0.87586904 3.0646095 -0.85499853 57
-0.87278521 3.0538192 -0.73487049 42
-0.86307806 3.0198545 -0.6128419 21
-1.2808582 4.4816403 -0.74343926 10
-1.3773102 4.8191195 -0.61774087 8
-1.4782469 5.1722908 -0.47137335 8
-1.6684105 5.8376608 -0.32329968 5
-1.8683389 6.5371976 -0.1198274 13
-4.5740986 16.004477 4.4505339 186
-2.6938355 9.4255571 2.2595859 128
-2.7110493 9.4857874 1.9163907 150
-2.7197413 9.5162001 1.5637596 175
-2.7221804 9.5247335 1.2122623 67
-2.732079 9.5593681 0.86868644 103
-2.68925 9.4095125 0.51866555 4
-2.6898704 9.4116831 0.17007318 5
-1.1261081 3.9875498 -1.1114981 1
0.1 0.1 0.1 -1
-0.8562541 3.0319965 -0.614757 29
-1.2667724 4.485642 -0.74343926 21
-1.3594663 4.8138714 -0.61651766 8
-1.4592831 5.1673226 -0.47050044 7
-1.6554905 5.8620934 -0.32436317 5
-1.8505099 6.5526571 -0.12000362 11
-4.5185456 16.000174 4.4453678 181
-2.6615627 9.4245958 2.2573397 124
-2.6812356 9.494257 1.9163907 139
-2.689832 9.5246973 1.5637596 159
-2.6922441 9.5332384 1.2122623 69
-2.702034 9.5679045 0.86868644 83
-2.6569619 9.4083042 0.51813632 4
-2.0054071 7.1011481 0.12820634 7
0.1 0.1 0.1 -1
-1.0866131 3.8944347 -0.93549466 4
-1.2423903 4.4527421 -0.90202665 12
-1.2500201 4.4800878 -0.7418642 25
-1.3443364 4.8181186 -0.61651766 8
-1.4430423 5.1718817 -0.47050044 7
-1.6209638 5.8095546 -0.32117271 6
-1.8352892 6.5776992 -0.12035605 12
-4.4682574 16.01429 4.4453678 197
-2.6293225 9.4235249 2.2550936 115
-2.6487572 9.4931784 1.9144838 143
-2.6545868 9.5140724 1.5606383 171
-2.6569462 9.5225277 1.2098329 70
-2.6639302 9.5475597 0.86607516 88
-2.6220243 9.3973675 0.5170778 5
-1.9562172 7.011107 0.12646914 3
-1.098465 3.9852352 -1.1089071 20
-1.0821395 3.9260063 -0.94225729 37
-1.2440438 4.5133958 -0.91351742 15
-1.2385635 4.4935131 -0.74343926 8
-1.3291932 4.8223181 -0.61651766 8
-1.4294343 5.1859932 -0.47137335 8
-1.5496349 5.6220813 -0.31053784 6
-1.8225862 6.6123495 -0.1208847 16
-4.4076567 15.990994 4.4350362 203
-2.5997047 9.4317379 2.2550936 102
-2.6137035 9.4825258 1.91067 145
-2.6194351 9.5033207 1.5575171 170
-2.6270173 9.5308285 1.2098329 69
-2.5465665 9.2389526 0.83735108 33
-31.842236 115.52375 6.351007 -1
-1.9288678 6.9979401 0.12612168 3
-1.0910141 4.0073051 -1.114089 25
-1.0723597 3.938787 -0.94451147 16
-1.24275 4.5646329 -0.92309308 13
-1.2244406 4.4973817 -0.74343926 16
-1.3114297 4.8168936 -0.6152944 8
-1.4079012 5.1712341 -0.46962753 9
-1.5267186 5.6076517 -0.30947438 6
-1.8201897 6.6855736 -0.12211822 21
-4.357398 16.004763 4.4350362 225
-2.5675013 9.4304571 2.2528474 134
-2.5839002 9.4906902 1.91067 146
-2.5921614 9.5210333 1.5590777 163
-2.5918474 9.5198793 1.2074035 71
-2.4782743 9.102725 0.82429469 1
-2.4868529 9.1342344 0.50172955 1
-1.8989941 6.9750228 0.12560053 11
-1.0784194 4.0107126 -1.114089 20
-1.0625101 3.951545 -0.94676566 27
-1.2462436 4.6348619 -0.936499 12
-1.2077415 4.4916697 -0.7418642 14
-1.2962905 4.8209901 -0.6152944 8
-1.3942351 5.1852522 -0.47050044 8
-1.5090941 5.6124201 -0.30947438 6
-31.154587 115.86596 -2.1146011 -1
-4.3020792 15.999715 4.4298701 203
-2.535332 9.4290657 2.2506013 116
-2.5515227 9.4892807 1.9087632 146
-2.5596726 9.5195913 1.5575171 163
-2.5619271 9.5279751 1.2074035 64
-2.4703591 9.1874285 0.83125806 1
-31.115755 115.72154 6.351007 -1
-1.8692833 6.9519877 0.12507936 1
-1.0633354 4.004746 -1.1114981 22
-1.052591 3.9642797 -0.94901985 20
-1.2467892 4.6956716 -0.94798982 7
-1.2037615 4.5336199 -0.74816453 13
-1.2811387 4.8250384 -0.6152944 8
-1.3779383 5.1896067 -0.47050044 8
-1.4888921 5.607482 -0.30894262 6
-1.8140695 6.8321686 -0.12458525 3
-4.2468348 15.994477 4.4247041 210
-2.5006957 9.418148 2.2461092 122
-2.5216987 9.4972496 1.9087632 142
-2.5246837 9.5084925 1.5543958 159
-2.5319815 9.5359764 1.2074035 33
-30.678331 115.54107 10.445127 -1
-2.485791 9.3620129 0.51337308 12
-1.8371704 6.9191713 0.12438448 7
-1.0531982 4.0174093 -1.114089 20
-1.0450728 3.9864151 -0.95352829 19
-1.2419871 4.7375417 -0.95565033 12
-1.2621356 4.8143983 -0.79384196 4
-1.265974 4.8290396 -0.6152944 8
-1.3591017 5.1842737 -0.46962753 8
-1.4712684 5.6121321 -0.30894262 6
-1.7976677 6.8571773 -0.12493768 6
-4.1916661 15.98905 4.419538 197
-2.4686244 9.4165316 2.2438631 127
-2.4818923 9.4671431 1.9011358 132
-2.48979 9.4972677 1.5512745 61
-2.4743226 9.4382677 1.194042 1
-2.4504786 9.3473148 0.84431452 91
-2.456367 9.3697767 0.51337308 1
-1.8128886 6.9152374 0.12421075 7
-1.040572 4.0206985 -1.114089 21
-1.0349851 3.9991107 -0.95578247 22
-1.2270975 4.7414203 -0.95565033 11
-1.2494788 4.8278995 -0.79541701 4
-1.2532836 4.8426013 -0.61651766 8
-1.3428081 5.1885176 -0.46962753 7
-1.4536301 5.6167264 -0.30894262 5
-1.766096 6.8240728 -0.12423282 7
-2.4277258 9.3805647 2.5907636 226
-2.4365878 9.4148073 2.241617 120
-2.39311 9.2468119 1.8553712 1
-2.4030211 9.2851067 1.5153798 1
-2.4247637 9.3691196 1.1843244 6
-2.4111171 9.31639 0.84083277 1
-30.023739 116.00965 6.351007 -1
-1.7936599 6.9305782 0.12438448 1
-1.0272332 4.024127 -1.114089 22
-1.0265372 4.0214005 -0.96029091 28
-1.2307884 4.8215427 -0.97097135 19
-1.2359045 4.8415847 -0.79699212 5
-1.237218 4.8467307 -0.61651766 8
-1.328059 5.2025943 -0.47050044 7
-1.4300566 5.6021647 -0.30787915 6
-1.7360379 6.8008285 -0.12370417 32
-2.3631532 9.2575169 2.5546014 1
-2.3860724 9.3473015 2.2236481 118
-2.3527212 9.21665 1.8477437 1
-2.3746603 9.3025951 1.5169405 11
-2.3838611 9.3386383 1.1794657 4
-2.3925295 9.3725967 0.84518492 9
-2.3933389 9.3757677 0.51284379 3
-1.7657214 6.9171124 0.12403703 4
-1.014586 4.0273342 -1.114089 23
-1.035319 4.1096325 -0.98057872 27
-1.2132373 4.8158679 -0.96905625 11
-1.225513 4.8645954 -0.80014229 11
-1.219561 4.8409691 -0.6152944 7
-1.3068408 5.1874208 -0.46875462 7
-1.4148893 5.616313 -0.30841088 5
-1.5461285 6.1372585 -0.11154521 3
-2.317538 9.1993198 2.5365202 11
-2.3352709 9.2697086 2.203433 15
-2.3405414 9.2906294 1.8610919 5
-2.3478367 9.3195877 1.5185012 10
-2.3496614 9.3268309 1.1770363 3
-2.3582056 9.3607464 0.84344405 5
-2.3687513 9.402607 0.51390231 6
-1.7488672 6.9420166 0.12438448 2
-1.0019287 4.0305018 -1.114089 21
-1.0318044 4.1506844 -0.98959553 22
-1.2170441 4.8958559 -0.98437726 10
-1.2149891 4.8875885 -0.80329245 10
-1.206741 4.8544087 -0.61651766 8
-1.295344 5.2108359 -0.47050044 7
-1.3972383 5.6207304 -0.30841088 5
-1.5244281 6.1323824 -0.11136899 4
-2.2862957 9.1971798 2.5339372 12
-2.3014359 9.2580853 2.1989408 6
-2.3089743 9.2884102 1.859185 4
-2.3185468 9.3269176 1.5185012 8
-2.3203487 9.3341665 1.1770363 3
-2.3287861 9.3681087 0.84344405 4
-2.3343823 9.3906202 0.51284379 5
-1.7222254 6.9280701 0.12403703 2
-0.98696101 4.0242491 -1.1114981 21
-1.0257215 4.182292 -0.99635816 22
-1.2156845 4.9568496 -0.99586809 8
-1.2113893 4.9393363 -0.81116784 8
-1.1914845 4.8581758 -0.61651766 11
-1.2789674 5.21488 -0.47050044 10
-1.3771948 5.6153936 -0.30787915 5
-1.5027736 6.1274309 -0.11119278 5
-2.2550895 9.1949339 2.5313542 11
-2.2700186 9.255806 2.1966949 9
-2.2774444 9.2860842 1.8572781 4
-2.2845285 9.3149691 1.5153798 7
-2.2886488 9.3317699 1.1758215 3
-2.2945981 9.3560276 0.84170324 3
-2.3001122 9.3785105 0.51178533 4
-1.7004517 6.9334464 0.12403703 2
-0.97885585 4.0461054 -1.1166799 24
-1.021741 4.2233715 -1.005375 17
-1.2070298 4.9892635 -1.0016135 11
-1.2005101 4.9623141 -0.814318 8
0.1 0.1 0.1 -1
-1.2578932 5.1995072 -0.46875462 9
-1.3595467 5.6196923 -0.30787915 5
-1.4835163 6.1321216 -0.11119278 6
-2.2239201 9.192584 2.5287712 11
-2.2409294 9.2628918 2.1966949 8
-2.2459519 9.2836523 1.8553712 3
-2.2529309 9.3125 1.5138192 6
-2.2569871 9.3292665 1.1746069 3
-2.2651942 9.3631907 0.84170324 3
-2.2706375 9.3856907 0.51178533 4
-1.6786613 6.9387541 0.12403703 3
-0.96389824 4.0397654 -1.114089 21
-1.0220348 4.2834201 -1.0189002 27
-1.1913497 4.9930305 -1.0016135 8
-1.1894984 4.9852724 -0.81746817 12
-1.3313912 5.5799546 -0.7070381 6
-1.2461762 5.2228127 -0.47050044 10
-1.3418852 5.6239357 -0.30787915 5
-1.4642445 6.1367521 -0.11119278 5
-2.1927876 9.1901283 2.5261881 10
-2.2095566 9.2604074 2.1944487 11
-2.2167754 9.2906618 1.8553712 4
-2.2213712 9.3099241 1.5122585 5
-2.2253635 9.3266554 1.1733922 3
-2.2311435 9.3508806 0.83996236 3
-2.236505 9.3733511 0.51072681 3
-1.6568544 6.9439936 0.12403703 5
-0.95120215 4.0427737 -1.114089 21
-1.0174984 4.3245444 -1.027917 21
-1.1779057 5.0063028 -1.0035286 8
-1.1851395 5.0370479 -0.82534361 12
-1.3138547 5.5841098 -0.7070381 12
-1.2274806 5.2170048 -0.46962753 5
-1.3242105 5.6281238 -0.30787915 6
-1.4426681 6.1315889 -0.11101656 6
-2.1639051 9.1969719 2.5261881 11
-2.1804533 9.2673035 2.1944487 10
-2.1853287 9.2880249 1.8534644 3
-2.1875877 9.2976265 1.5091373 4
-2.1915054 9.3142767 1.1709628 3
-2.201756 9.3578434 0.83996236 3
-2.2070467 9.380331 0.51072681 3
-1.6304511 6.9296989 0.12368959 7
-0.94067931 4.055151 -1.1166799 22
-1.0105121 4.3561912 -1.0346797 16
-1.1621721 5.0099788 -1.0035286 10
-1.1782354 5.0792255 -0.83164394 9
-1.2918198 5.5688734 -0.70459157 10
-1.2110848 5.2208357 -0.46962753 6
-1.3065227 5.632256 -0.30787915 5
-1.4188794 6.1166115 -0.11066413 5
-2.1328185 9.194314 2.5236051 10
-2.1469245 9.2551231 2.1899564 10
-2.1539204 9.2852821 1.8515575 3
-2.1583676 9.3044538 1.5091373 4
-2.1622329 9.3211155 1.1709628 3
-2.1700954 9.35501 0.83909196 3
-2.1753101 9.37749 0.51019758 4
-1.6086727 6.9347873 0.12368959 5
-0.93008804 4.0675015 -1.1192708 20
-0.99899352 4.3688421 -1.0369338 38
-1.1464272 5.0136051 -1.0035286 11
-1.1688765 5.1117821 -0.83636916 5
-1.2743183 5.5729046 -0.70459157 6
-1.1924566 5.2149034 -0.46875462 9
-1.2888221 5.636333 -0.30787915 5
-1.3996564 6.1210389 -0.11066413 5
-2.1017697 9.1915512 2.5210221 10
-2.1156662 9.2523232 2.1877103 10
-2.1225512 9.2824335 1.8496506 3
-2.1269245 9.3015594 1.5075766 4
-2.1307266 9.3181858 1.1697481 3
-2.1384745 9.3520699 0.83822149 3
-2.1436133 9.3745432 0.50966829 3
-1.5801923 6.9105659 0.12316843 5
-0.91730505 4.0704036 -1.1192708 20
-0.99168909 4.4004717 -1.0436964 21
-1.1306708 5.0171819 -1.0035286 11
-1.1788639 5.2310319 -0.85527021 49
-1.2546223 5.5671983 -0.70336837 8
-1.1826378 5.2477779 -0.47137335 7
-1.2689133 5.6306124 -0.30734739 6
-1.3782216 6.1156516 -0.11048791 5
-2.0707595 9.1886845 2.5184393 10
-2.0844464 9.2494183 2.1854641 10
-2.0912211 9.279479 1.8477437 3
-2.095521 9.2985592 1.506016 4
-2.1014421 9.3248339 1.1697481 3
-2.1068935 9.3490238 0.83735108 2
-2.1119564 9.3714895 0.50913906 3
-1.5584744 6.9154963 0.12316843 7
-0.90380204 4.0734229 -1.1192708 19
-0.98342222 4.4322701 -1.050459 26
-1.114027 5.0209036 -1.0035286 11
-1.1529545 5.1963491 -0.84896988 6
-1.236154 5.5713282 -0.70336837 7
-1.2623315 5.6893101 -0.51065445 3
-1.2502346 5.6347895 -0.30734739 5
-1.3579339 6.1201887 -0.11048791 5
-2.0423698 9.2049322 2.5210221 9
-2.051652 9.2467661 2.183218 9
-2.0583112 9.2767792 1.845837 3
-2.0646741 9.3054571 1.506016 4
-2.0683582 9.3220615 1.1685334 3
-2.0737216 9.3462334 0.83648068 3
-2.0808678 9.3784418 0.50913906 3
-1.5333674 6.9108653 0.12299471 6
-0.89100057 4.0762424 -1.1192708 21
-0.96949297 4.4353375 -1.050459 21
-1.1003437 5.0339675 -1.0054437 10
-1.145059 5.2385354 -0.85527021 34
-1.2165256 5.5654879 -0.7021451 7
-1.2572155 5.7516403 -0.51589197 19
-1.2303938 5.6289339 -0.30681565 5
-1.3387001 6.1244245 -0.11048791 5
-2.0072529 9.1829891 2.5132732 10
-2.0205114 9.2436466 2.1809719 9
-2.0291574 9.2832003 1.845837 3
-2.0312116 9.2925987 1.5028948 3
-2.0369422 9.3188162 1.1673187 4
-2.0443492 9.3527021 0.83648068 3
-25.589119 117.06776 6.351007 -1
-1.5095136 6.9058805 0.12282099 4
-0.88022316 4.0884633 -1.1218617 22
-0.95760477 4.447886 -1.0527133 20
-1.0845237 5.0373993 -1.0054437 11
-1.1285961 5.2421069 -0.85527021 29
-1.1948574 5.5498772 -0.69969863 8
-1.2391399 5.7555614 -0.51589197 14
-1.2127039 5.6327715 -0.30681565 5
-1.3173486 6.1188254 -0.11031169 5
-1.9763604 9.1798058 2.5106902 10
-1.9935126 9.2594748 2.183218 10
-1.9958512 9.2703362 1.8420233 3
-1.9999292 9.289278 1.5013341 3
-2.0034781 9.3057623 1.1648893 4
-1.8283479 8.4923172 0.75901264 4
-1.8306397 8.5029621 0.46097726 3
-1.4857063 6.9008141 0.12264726 4
-0.86537135 4.0817599 -1.1192708 21
-0.94362658 4.4508724 -1.0527133 38
-1.0666573 5.0311799 -1.0035286 10
-1.1141701 5.2552872 -0.85684526 24
-1.1794745 5.5633125 -0.70092183 8
-1.2210523 5.7594261 -0.51589197 12
-1.1950021 5.6365533 -0.30681565 6
-1.2960457 6.1131525 -0.11013547 5
-1.945508 9.1765184 2.5081072 10
-1.9603714 9.2466259 2.178726 10
-1.9646817 9.2669573 1.8401164 3
-24.582989 115.95237 18.727659 -1
-1.7930733 8.4575195 1.0579965 2
-1.7975273 8.478528 0.75727177 3
-1.8039179 8.5086708 0.46097726 3
-1.4640195 6.9054475 0.12264726 4
-0.85254389 4.0844584 -1.1192708 20
-0.92963916 4.453815 -1.0527133 15
-1.0528516 5.0441141 -1.0054437 10
-1.1077434 5.3070955 -0.8647207 16
-1.161991 5.5669909 -0.70092183 7
-1.2029525 5.7632337 -0.51589197 14
-1.1772885 5.6402798 -0.30681565 6
-1.2747914 6.1074066 -0.10995926 5
-1.9146956 9.1731291 2.5055242 10
-23.892527 114.46688 26.95331 -1
-1.7510291 8.3890181 1.6646856 3
-1.7558479 8.4121046 1.3577553 2
-1.7624382 8.4436779 1.055567 2
-1.7688469 8.4743814 0.75640136 3
-1.7751379 8.5045204 0.460448 3
-1.4423182 6.9100127 0.12264726 3
-0.83970803 4.0871167 -1.1192708 17
-0.91760319 4.4662566 -1.0549674 19
-1.0389751 5.0570107 -1.0073589 9
-1.09504 5.3298955 -0.86787087 10
-1.1405013 5.5511699 -0.69847536 7
-1.1828361 5.7572265 -0.51501906 15
-1.1676018 5.6830769 -0.30894262 5
-1.2576102 6.1211753 -0.11013547 5
-1.7089463 8.3179665 2.2704697 8
-1.7198555 8.3710651 1.9698377 7
-1.7246656 8.3944778 1.6646856 3
-1.7333876 8.4369297 1.3608767 6
-1.7339053 8.4394503 1.0543524 2
-1.74422 8.4896545 0.75727177 3
-1.7484114 8.5100555 0.460448 3
-1.4246271 6.9340978 0.12299471 4
-0.82877785 4.0992017 -1.1218617 18
-0.90356755 4.4691172 -1.0549674 15
-1.0191928 5.0410094 -1.0035286 9
-1.0763332 5.3236303 -0.86629575 17
-1.1191225 5.5352697 -0.69602883 8
-1.1627692 5.7511497 -0.51414609 13
-1.173489 5.8041706 -0.31532353 3
-1.2363924 6.1152959 -0.10995926 6
-1.6808919 8.3138256 2.2678869 7
-1.6935487 8.3764277 1.9698377 10
-1.6982851 8.3998537 1.6646856 3
-1.7029588 8.4229708 1.3577553 5
-1.7093506 8.4545841 1.055567 2
-1.7135921 8.475563 0.75553089 2
-1.7196888 8.5057182 0.45991877 3
-1.4048173 6.948339 0.12316843 3
-0.8158958 4.1017852 -1.1218617 18
-0.88952297 4.4719338 -1.0549674 21
-1.0014362 5.0345602 -1.0016135 9
-1.0634564 5.3463564 -0.86944592 6
-1.097855 5.5192895 -0.69358236 7
-1.1427523 5.7450037 -0.51327318 11
-1.157197 5.8176222 -0.31585529 7
-1.2191252 6.1289563 -0.11013547 3
-1.6547649 8.3190651 2.2678869 9
-1.665324 8.3721495 1.9675916 6
-1.6699728 8.3955202 1.6627787 3
-1.672635 8.4089031 1.354634 5
-1.6789083 8.4404421 1.0531377 3
-1.6850134 8.4711342 0.75466049 2
-1.6910107 8.5012846 0.45938951 3
-1.3829817 6.9527183 0.12316843 3
-0.79002404 4.0379763 -1.1037253 47
-0.87734026 4.4842677 -1.0572217 23
-0.98561484 5.0376816 -1.0016135 8
-1.0485512 5.3593621 -0.87102103 25
-1.0728875 5.4837503 -0.68868935 7
-1.11896 5.7192359 -0.51065445 7
-1.1389148 5.821229 -0.31585529 6
-1.1998645 6.1327558 -0.11013547 3
-1.6267668 8.3147421 2.2653039 9
-1.6371429 8.3677759 1.9653455 6
-1.6417044 8.3910913 1.6608719 3
-1.6443127 8.4044228 1.3530735 4
-1.6504779 8.4359341 1.051923 2
-1.6564795 8.46661 0.75379008 3
-1.6623775 8.4967556 0.45886025 3
-1.363052 6.9668412 0.12334215 3
-0.73171622 3.8033233 -1.0389527 49
-0.86324823 4.4870019 -1.0572217 64
-0.96978366 5.0407529 -1.0016135 10
-1.0354404 5.3820243 -0.8741712 18
-1.0556546 5.4870939 -0.68868935 5
-1.0991049 5.7129407 -0.50978154 10
-1.1206212 5.8247786 -0.31585529 5
-1.1768141 6.1168585 -0.10978305 3
-1.6006372 8.3198109 2.2653039 8
-1.6090058 8.3633089 1.9630994 7
-1.6134804 8.3865681 1.658965 3
-1.6160353 8.399848 1.3515128 3
-1.6239675 8.4410772 1.051923 3
-1.6298727 8.4717712 0.75379008 2
-1.6356759 8.501936 0.45886025 3
-1.3411584 6.9710889 0.12334215 2
-0.69220096 3.6633699 -1.0000892 48
-0.85017288 4.499413 -1.0594759 42
-0.94941795 5.0246525 -0.99778318 12
-1.0212543 5.4048357 -0.87732136 25
-1.0392957 5.5003166 -0.68991262 10
-1.0690566 5.6578221 -0.50454408 5
-1.0975914 5.8088379 -0.3147918 3
-1.1565235 6.1207271 -0.10978305 3
-1.5712453 8.3155804 2.2627208 8
-1.5812632 8.3685989 1.9630994 7
-1.5856607 8.3918724 1.658965 3
-1.5863377 8.3954544 1.3499522 3
-1.5959669 8.4464159 1.051923 3
-1.5999207 8.4673414 0.75291961 3
-1.6056194 8.4975004 0.45833099 3
-1.3198904 6.9853225 0.12351587 5
-0.65423709 3.5230837 -0.96122557 56
-0.8360334 4.5020618 -1.0594759 45
-0.93183589 5.0179605 -0.99586809 12
-1.0060725 5.4177265 -0.87889642 28
-1.0220108 5.5035548 -0.68991262 7
-1.0512768 5.6611528 -0.50454408 5
-1.0811602 5.8220754 -0.31532353 4
-1.1591949 6.2422948 -0.11189765 4
-1.5415858 8.3014793 2.2575548 8
-1.5531856 8.363945 1.9608532 7
-1.5574968 8.3871603 1.6570581 3
-1.5617582 8.4101086 1.3515128 3
-1.5676116 8.4416294 1.0507083 2
-1.5733119 8.4723253 0.75291961 3
-1.5770926 8.4926853 0.45780176 3
-1.2942879 6.9697738 0.12316843 4
-0.61889541 3.3920982 -0.92495292 68
-0.7851631 4.3033934 -1.0121375 152
-0.91606694 5.0208631 -0.99586809 8
-0.99259222 5.44029 -0.88204658 31
-1.0118415 5.5457931 -0.69480562 7
-1.0388508 5.6938276 -0.50716281 15
-1.0628643 5.8254433 -0.31532353 3
-1.2275145 6.7278733 -0.12053227 2
-1.5154983 8.3062811 2.2575548 9
-1.5251528 8.3591967 1.9586072 7
-1.5293782 8.3823547 1.6551514 3
-1.5335565 8.4052563 1.3499522 3
-1.5410838 8.4465122 1.0507083 3
-1.5448996 8.4674263 0.75204921 2
-1.5504043 8.4975977 0.45780176 3
-1.2687961 6.9541335 0.12282099 4
-0.47875139 2.671488 -0.72804421 1
-0.72351968 4.0373235 -0.94901985 98
-0.90548295 5.0526996 -1.0016135 9
-0.98072207 5.4725423 -0.88677186 20
-0.99791539 5.5684834 -0.69725209 8
-1.0209579 5.6970634 -0.50716281 6
-1.0445579 5.8287539 -0.31532353 3
-1.208136 6.741538 -0.12070848 6
-1.489396 8.3110018 2.2575548 8
-1.4988841 8.3639469 1.9586072 6
-1.5030366 8.3871183 1.6551514 3
-1.5054008 8.4003105 1.3483915 3
-1.5127898 8.4415417 1.0494937 3
-1.5165335 8.4624319 0.7511788 3
-1.5237007 8.5024261 0.45780176 3
-1.2434154 6.9384017 0.12247355 4
0.1 0.1 0.1 -1
-0.67537528 3.8380775 -0.9016816 7
-0.89300686 5.074852 -1.0054437 11
-0.96523613 5.485322 -0.88834691 17
-0.9872967 5.6106896 -0.7021451 6
-1.0082344 5.7296758 -0.50978154 9
-1.0279717 5.8418412 -0.31585529 3
-1.1817526 6.7157588 -0.12017983 5
-1.4616046 8.3061247 2.2549717 7
-1.4726007 8.3686142 1.9586072 8
-1.4766804 8.391799 1.6551514 3
-1.4772912 8.3952703 1.3468308 3
-1.4862624 8.4462528 1.0494937 3
-1.4899405 8.4671545 0.7511788 2
-1.4935209 8.4875011 0.45674324 3
-1.2233444 6.9521208 0.12264726 3
-0.45702466 2.6458907 -0.72027147 16
-0.64175659 3.7153745 -0.87237692 53
0.1 0.1 0.1 -1
-0.95136046 5.5077896 -0.89149708 6
-0.97473329 5.6431036 -0.70581484 6
-0.9919247 5.7426314 -0.51065445 4
-1.0062146 5.8253617 -0.3147918 6
-1.1538413 6.680028 -0.11947496 4
-1.435503 8.3106756 2.2549717 7
-1.4446441 8.3635969 1.9563611 9
-1.4486387 8.3867235 1.6532445 3
-1.4509094 8.3998699 1.3468308 3
-1.4580311 8.4410992 1.0482789 2
-1.4633329 8.4717932 0.7511788 2
-1.4668493 8.4921513 0.45674324 3
-1.2066033 6.9854875 0.12316843 3
-0.4524036 2.6662798 -0.72545326 41
-0.60954273 3.5923929 -0.8430723 13
-0.75198358 4.4318805 -0.87712997 23
-0.94162226 5.5495319 -0.89779741 52
-0.95798558 5.6459708 -0.70581484 5
-0.97321516 5.7357278 -0.50978154 10
-0.99393755 5.8578568 -0.31638703 5
-1.1289984 6.6538496 -0.11894631 4
-1.4092224 8.3053741 2.2523887 7
-1.4198225 8.3678465 1.9563611 7
-1.4237484 8.3909845 1.6532445 3
-1.4259801 8.4041376 1.3468308 3
-1.4313189 8.4356022 1.0470642 3
-1.4365237 8.4662762 0.75030833 2
-1.4416461 8.4964666 0.45674324 3
-20.071169 118.29118 2.084656 -1
-0.4365533 2.6199746 -0.71249878 18
-0.44035384 2.6427836 -0.61990607 1
-0.69688827 4.182375 -0.82733655 31
-0.9251523 5.5523014 -0.89779741 27
-0.94286072 5.6585784 -0.7070381 6
-0.95455533 5.7287641 -0.50890863 8
-0.98475891 5.9100304 -0.31904575 8
-1.104321 6.6275826 -0.11841767 4
-1.3829858 8.2999897 2.2498057 7
-1.3933867 8.3624105 1.9541149 7
-1.3972322 8.3854895 1.6513376 3
-1.3994149 8.3985882 1.3452703 3
-1.4079151 8.4496031 1.0482789 3
-1.4113973 8.4705019 0.75030833 3
-1.4147891 8.4908562 0.45621401 3
-1.4149175 8.4916277 0.14957407 1
-0.42895943 2.6310151 -0.71508968 31
-0.43269384 2.6539202 -0.62216032 31
-0.65069759 3.9910421 -0.78903395 21
-0.90894365 5.5749903 -0.90094757 43
-0.9199087 5.6422443 -0.70459157 7
-0.93294942 5.722229 -0.50803572 3
-0.97055054 5.9528546 -0.32117271 6
-1.0795709 6.6215291 -0.11824145 4
-1.354005 8.3047667 2.2498057 7
-1.36262 8.3576059 1.9518689 7
-1.3663733 8.3806267 1.6494308 3
-1.3685004 8.3936729 1.3437096 3
-1.3752174 8.4348726 1.0458496 2
-1.3802181 8.4655447 0.74943793 2
-1.3835349 8.4858875 0.45568475 3
-19.306866 118.41832 2.084656 -1
-0.41916749 2.6228123 -0.71249878 18
-0.42127916 2.6360254 -0.61765188 22
-0.61956906 3.8767638 -0.76605237 39
0.1 0.1 0.1 -1
-0.89747971 5.6157045 -0.70092183 5
-0.91496795 5.7251315 -0.50803572 8
-0.95972383 6.005178 -0.32383144 7
-1.0619192 6.6446342 -0.11859388 5
-1.3263836 8.2994394 2.2472227 8
-1.3378949 8.3714676 1.9541149 7
-1.3400381 8.3848782 1.6494308 3
-1.3405653 8.3881779 1.342149 3
-1.3487118 8.4391518 1.0458496 3
-1.352044 8.460001 0.74856746 2
-1.3584448 8.5000525 0.45621401 3
-18.934748 118.47839 2.084656 -1
-0.40943134 2.614574 -0.70990783 24
-0.4114885 2.6277106 -0.61539769 31
-0.4008753 2.559936 -0.50559455 29
-0.40944836 2.6146824 -0.4221223 18
-0.88290405 5.6381073 -0.70336837 6
-0.90468341 5.7771873 -0.51240027 12
-0.94548804 6.0377603 -0.32542667 6
-1.0518672 6.7170839 -0.1198274 6
-1.2988091 8.2940216 2.2446396 8
-1.3085735 8.3563747 1.9496228 7
-1.3121709 8.3793478 1.6475239 3
-1.3142066 8.3923473 1.342149 3
-1.3221928 8.443347 1.0458496 2
-1.3254595 8.4642076 0.74856746 2
-1.3286446 8.4845467 0.45515549 3
-1.3225741 8.4457817 0.14853175 1
-0.4012154 2.6158473 -0.70990783 18
-0.39289203 2.5615804 -0.59961826 13
-0.39134306 2.5514815 -0.50367945 19
-0.40572348 2.6452391 -0.42684755 67
-0.86217773 5.621233 -0.70092183 6
-0.93485808 6.0950947 -0.54033351 13
-0.93559867 6.0999236 -0.32861713 6
-1.0307598 6.7203555 -0.1198274 5
-1.2742108 8.3076096 2.2472227 8
-1.2823147 8.360445 1.9496228 7
-1.2858399 8.3834286 1.6475239 3
-1.2878348 8.3964348 1.342149 3
-1.294156 8.4376478 1.0446348 3
-1.2973516 8.4584827 0.74769706 2
-1.3034971 8.4985495 0.45568475 3
-1.3066453 8.5190754 0.14974779 8
-0.39156124 2.6075435 -0.70731694 21
-0.38484266 2.5628021 -0.59961826 21
-0.38478294 2.5624044 -0.50559455 23
-0.39301184 2.6172035 -0.4221223 8
-0.84304005 5.614099 -0.69969863 6
-0.91718453 6.1078529 -0.54120642 4
-0.92681092 6.1719584 -0.33233932 8
-1.0126116 6.7433357 -0.12017983 5
-1.2466708 8.3020182 2.2446396 8
-1.2560433 8.3644323 1.9496228 7
-1.2594963 8.3874273 1.6475239 3
-1.262917 8.4102068 1.3437096 3
-1.2676419 8.4416714 1.0446348 3
-1.2722515 8.4723682 0.74856746 2
-1.2753087 8.4927273 0.45515549 3
-1.2798754 8.523139 0.14974779 5
-0.38336748 2.6087606 -0.70731694 23
-0.37395647 2.5447202 -0.59510982 18
-0.37530401 2.55389 -0.50367945 12
-0.38765928 2.6379659 -0.42527246 37
-0.82684171 5.6265392 -0.70092183 6
-0.91247541 6.2092638 -0.54993558 6
-0.91757965 6.2439981 -0.33606151 6
-0.98851448 6.7266989 -0.1198274 8
-1.2191787 8.2963352 2.2420566 8
-1.226926 8.3490553 1.9451305 7
-1.2317131 8.3816299 1.645617 3
-1.2336172 8.3945885 1.3405883 3
-1.2411155 8.4456129 1.0446348 3
-1.2441801 8.4664669 0.74769706 3
-1.2486218 8.4966917 0.45515549 3
-1.2516392 8.5172253 0.14957407 4
-0.37379569 2.6003919 -0.70472604 22
-0.37011883 2.5748129 -0.60187244 19
-0.36867538 2.5647714 -0.50559455 14
-0.37936997 2.6391706 -0.42527246 6
0.1 0.1 0.1 -1
-0.90146834 6.2712626 -0.55517304 5
-0.90648401 6.3061552 -0.33925197 5
-0.96453184 6.7099781 -0.11947496 7
-1.1931089 8.3001251 2.2420566 8
-1.2020772 8.3625135 1.9473766 7
-1.2039787 8.375742 1.6437101 3
-1.2072388 8.3984222 1.3405883 3
-1.2131644 8.4396448 1.0434202 3
-1.2161584 8.4604731 0.74682665 3
-1.2205017 8.4906883 0.45462626 3
-1.2234528 8.511219 0.14940035 3
-0.36428028 2.5919888 -0.70213515 22
-0.36067209 2.5663152 -0.59961826 20
-0.35788417 2.5464783 -0.5017643 13
-0.37107691 2.6403494 -0.42527246 27
-0.58289987 4.1475477 -0.51621121 80
-0.89146709 6.3431182 -0.56128347 33
-0.89083749 6.3386378 -0.34084719 11
-0.94205558 6.703074 -0.11929875 4
-1.165683 8.2942657 2.2394736 7
-1.1744435 8.3565989 1.9451305 7
-1.1790258 8.389204 1.645617 8
-1.1794738 8.3923922 1.3390276 3
-1.1866446 8.4434147 1.0434202 3
-1.189573 8.4642525 0.74682665 3
-1.1924317 8.4845924 0.454097 3
-1.1967081 8.5150204 0.14940035 3
-0.35482135 2.5835516 -0.69954425 25
-0.3486312 2.5384796 -0.59285563 32
-0.35121787 2.5573137 -0.50367945 16
-0.36412382 2.6512856 -0.42684755 10
-0.56581593 4.1198606 -0.51254147 30
-16.265043 118.43024 -10.474963 -1
-16.30427 118.71586 -6.3809147 -1
-0.92643428 6.7456222 -0.12000362 6
-1.1396201 8.2978868 2.2394736 7
-1.1468588 8.3505936 1.9428844 7
-1.1513288 8.3831415 1.6437101 3
-1.1531025 8.3960562 1.3390276 3
-1.160113 8.4471006 1.0434202 3
-1.1616206 8.4580784 0.74595618 2
-1.1657706 8.4882965 0.454097 4
-1.168591 8.508832 0.14922662 6
-0.34670317 2.5846536 -0.69954425 26
-0.34454042 2.5685306 -0.59961826 14
-0.34187722 2.5486767 -0.5017643 17
-0.35579279 2.6524165 -0.42684755 18
-0.54891169 4.0921078 -0.50887173 59
-0.54830521 4.0875864 -0.36138624 24
-0.56423116 4.2063131 -0.22599073 17
-0.92384762 6.8872352 -0.12247065 19
-1.1122615 8.291851 2.2368906 8
-1.1206191 8.3541555 1.9428844 7
-1.1236817 8.3769875 1.6418033 3
-1.1240935 8.3800573 1.3359064 3
-1.1322503 8.4408655 1.0422055 3
-1.135043 8.4616861 0.74595618 3
-1.1483915 8.5611982 0.45780176 13
-1.1538175 8.6016493 0.15079013 12
-0.33607352 2.5665765 -0.6943624 23
-0.3377344 2.5792606 -0.60187244 54
-0.33259434 2.5400062 -0.49984917 19
-0.34617609 2.6437294 -0.42527246 18
-0.53218752 4.0642891 -0.50520194 39
-0.53287423 4.0695338 -0.35964042 33
-0.55231035 4.2179666 -0.22652248 12
-0.93725592 7.1577764 -0.1272285 14
-1.0862066 8.2953043 2.2368906 7
-1.0931031 8.3479729 1.9406383 7
-1.0960846 8.3707428 1.6398965 3
-1.0977613 8.3835478 1.3359064 4
-1.105727 8.4443817 1.0422055 4
-1.120095 8.5541096 0.75379008 10
-1.1409379 8.7132854 0.4657405 12
-1.1410687 8.7142839 0.15270105 13
-0.32678482 2.5580389 -0.69177151 19
-0.32839519 2.5706449 -0.59961826 16
-0.32336932 2.5313029 -0.49793404 19
-0.33912024 2.6545994 -0.42684755 17
-0.51690125 4.0462513 -0.50275546 39
-0.51629972 4.041543 -0.35702166 42
-0.53652573 4.1998701 -0.22545899 13
-0.91856551 7.1904392 -0.12775715 9
-1.0576924 8.2795105 2.2317245 8
-1.0668718 8.351366 1.9406383 7
-1.0710257 8.3838825 1.6418033 4
-1.0764248 8.4261465 1.342149 9
-1.096802 8.5856562 1.0592111 14
-1.1121516 8.7058125 0.76684648 8
-1.1287436 8.8356924 0.47209153 10
-1.1314242 8.8566761 0.15513316 8
-0.31830028 2.5591087 -0.69177151 27
-0.32227385 2.5910559 -0.60412669 35
-0.31376201 2.5226214 -0.49601892 19
-0.33031541 2.6557095 -0.42684755 19
-0.5010305 4.028245 -0.50030899 30
-0.49797639 4.0036902 -0.35353002 38
-0.52136296 4.1917167 -0.22492725 12
-0.89718425 7.2132897 -0.12810959 9
-1.0314231 8.2925587 2.2343075 8
-1.0439827 8.3935375 1.9496228 31
-1.0565459 8.494544 1.6627787 15
-1.0667642 8.5766993 1.3655585 15
-1.0830265 8.7074471 1.0737875 5
-1.1004903 8.8478546 0.77903247 20
-1.116693 8.9781218 0.47950104 8
-1.1193255 8.9992876 0.15756525 7
-0.31025904 2.560096 -0.69177151 22
-0.31296009 2.5823836 -0.60187244 16
-0.30701625 2.5333383 -0.49793404 21
-0.32078254 2.6469307 -0.42527246 19
-0.48598483 4.0100937 -0.49786246 31
-0.485396 4.0052352 -0.35353002 24
-0.50939316 4.2032471 -0.22545899 12
-1.1295365 9.3203468 -0.16546755 57
-13.947277 115.08566 30.996174 -1
-1.038711 8.5709028 1.9900527 43
-1.0487506 8.6537447 1.6932884 20
-1.0552632 8.7074823 1.3858469 3
-1.0747731 8.8684683 1.0932225 7
-1.0894681 8.9897242 0.7912184 8
-1.1065031 9.1302881 0.48743978 7
-1.1090918 9.1516476 0.16017108 7
-0.29881907 2.5322821 -0.68399882 28
-0.30484575 2.5833542 -0.60187244 45
-0.30020624 2.5440376 -0.49984917 23
-0.31362268 2.6577325 -0.42684755 19
-0.47222126 4.0017443 -0.49663922 26
-0.47047594 3.9869537 -0.3517842 27
-0.49501553 4.1949096 -0.22492725 11
-1.1025937 9.343709 -0.16581997 1
-1.0098671 8.5579157 2.304049 30
-1.0254833 8.6902514 2.0170059 28
-1.0376647 8.7934809 1.7199844 9
-1.0464234 8.8677053 1.410817 9
-1.0643551 9.0196638 1.1114429 4
-1.0763977 9.1217165 0.80253398 6
-1.0965383 9.2923937 0.49590778 6
-1.1014267 9.3338194 0.16329806 3
-0.29196396 2.542804 -0.68658972 23
-0.29672843 2.5842991 -0.60187244 17
-0.29221246 2.5449681 -0.49984917 24
-0.30527166 2.6587048 -0.42684755 22
-0.45964709 4.0032082 -0.49663922 25
-0.45794824 3.9884121 -0.3517842 23
-0.48069534 4.1865234 -0.2243955 12
-13.686301 119.19821 -2.1146011 -1
-1.0039145 8.7434006 2.3531263 23
-1.018185 8.8676863 2.057436 25
-1.0290701 8.9624891 1.752401 10
-1.0343337 9.0083303 1.4326659 9
-1.049601 9.1412973 1.1260192 5
-1.063645 9.2636108 0.81471997 4
-1.0718964 9.3354759 0.49802479 3
-1.0743793 9.3571005 0.16364551 2
-0.28290248 2.5341096 -0.68399882 24
-0.28968909 2.5949011 -0.60412669 44
-0.28421578 2.5458736 -0.49984917 23
-0.29582193 2.6498363 -0.42527246 20
-0.44486609 3.984905 -0.49419272 23
-0.44431078 3.9799309 -0.35091126 36
-0.46754062 4.1880131 -0.2243955 13
-1.047192 9.3802624 -0.16634862 6
-0.99466258 8.9097281 2.3970375 20
-1.0087006 9.0354748 2.0956199 20
-1.0205129 9.141284 1.7867244 6
-1.0246583 9.1784163 1.4591968 7
-1.035194 9.2727909 1.1418102 4
-1.0378531 9.2966089 0.81733125 2
-13.29517 119.092 6.351007 -1
-1.0438685 9.3504925 0.16347177 1
-0.27493995 2.534986 -0.68399882 21
-0.28048503 2.5861125 -0.60187244 19
-0.27621627 2.5467539 -0.49984917 22
-0.28962538 2.6703877 -0.42842263 21
-0.4312748 3.9764159 -0.49296945 30
-0.43073115 3.9714034 -0.35003835 22
-0.45438132 4.1894612 -0.2243955 20
-1.0198741 9.4033861 -0.16670106 33
-0.98645866 9.0952911 2.4461148 15
-0.99817199 9.203289 2.1338036 1
-1.0002576 9.2225189 1.8019793 3
-1.0022087 9.240509 1.4685607 2
-1.0060577 9.2759972 1.1418102 3
-1.0086418 9.2998228 0.81733125 2
-1.0110656 9.3221712 0.4969663 3
-1.01341 9.3437862 0.16329806 3
-0.26697472 2.5358372 -0.68399882 18
-0.27337924 2.5966699 -0.60412669 31
-0.26924172 2.5573699 -0.5017643 20
-0.28020075 2.6614637 -0.42684755 23
-0.38448822 3.6520295 -0.45260224 120
-0.41199437 3.9132943 -0.34480089 77
-0.44121751 4.1908679 -0.2243955 19
-0.98928064 9.3965998 -0.16652484 34
-0.9619261 9.136776 2.4564469 8
-12.24321 116.29111 26.95331 -1
-0.97230709 9.2353783 1.8038861 5
-0.97524232 9.263258 1.471682 10
-0.97795063 9.2889833 1.1430249 2
-0.97837764 9.2930384 0.81646085 2
-12.546636 119.17318 6.351007 -1
-0.98509753 9.3568668 0.16347177 1
-0.25704467 2.5174463 -0.67881697 21
-0.26423058 2.5878236 -0.60187244 18
-0.26220316 2.5679674 -0.50367945 21
-0.27183816 2.6623309 -0.42684755 21
-0.364948 3.5742309 -0.44281626 41
-0.36731777 3.5974398 -0.31686765 67
-0.42804936 4.1922336 -0.2243955 16
-0.95873988 9.3897152 -0.16634862 27
-0.93419868 9.1493635 2.4590299 11
-0.93933684 9.1996851 2.1315575 4
-0.94328856 9.2383871 1.8038861 5
-0.94613618 9.2662764 1.471682 9
-0.9477554 9.282135 1.1418102 2
-0.94917792 9.2960663 0.81646085 2
-0.95145881 9.3184052 0.49643704 4
-0.95366597 9.3400221 0.16312434 5
-0.25103641 2.5374646 -0.68399882 11
-0.25801775 2.6080317 -0.60638088 18
-0.25510064 2.5785456 -0.50559455 18
-0.26347286 2.6631715 -0.42684755 19
-0.34883186 3.5259764 -0.43669999 45
-0.35307199 3.5688357 -0.31424889 27
-0.41389385 4.18362 -0.22386377 13
-0.92726785 9.3727808 -0.16599619 23
-0.90449947 9.1426392 2.4564469 9
-0.91138995 9.2122879 2.1338036 12
-0.91329426 9.2315369 1.8019793 5
-0.91507578 9.2495441 1.4685607 7
-0.91761285 9.2751884 1.1405956 2
-0.91898805 9.2890892 0.81559038 2
-0.92316264 9.3312855 0.4969663 9
-0.92431879 9.3429718 0.16312434 3
-0.24398421 2.5478551 -0.68658972 19
-0.24889441 2.5991311 -0.60412669 9
-0.24699867 2.5793343 -0.50559455 18
-0.25698766 2.6836467 -0.42999771 21
-0.33680689 3.5171752 -0.43547675 42
-0.33806002 3.5302613 -0.31075725 64
-0.40265238 4.2047806 -0.22492725 12
-0.89877093 9.3856001 -0.1661724 11
-0.8748517 9.1358185 2.4538639 8
-0.88151538 9.2054052 2.1315575 10
-0.88335228 9.2245884 1.8000724 4
-0.88601303 9.2523737 1.4685607 6
-0.88846952 9.2780256 1.1405956 2
-0.88980103 9.2919302 0.81559038 3
-0.89289111 9.3241997 0.49643704 6
-0.89496243 9.34583 0.16312434 3
-0.23375626 2.5294151 -0.68140793 24
-0.24117056 2.6096435 -0.60638088 15
-0.23754072 2.5703659 -0.50367945 14
-0.24717823 2.6746509 -0.42842263 19
-0.32331502 3.498507 -0.43303025 38
-0.32543468 3.5214434 -0.30988434 23
-0.3877877 4.1961493 -0.2243955 13
-0.86580205 9.3686171 -0.16581997 13
-0.84455144 9.13867 2.4538639 10
-0.85098428 9.2082787 2.1315575 9
-0.85366094 9.2372417 1.8019793 4
-0.8544172 9.2454252 1.467 5
-0.85769761 9.280921 1.1405956 3
-0.85898298 9.2948294 0.81559038 3
-0.86196607 9.3271093 0.49643704 5
-0.86396563 9.3487463 0.16312434 4
-0.22666731 2.5397575 -0.68399882 21
-0.23297094 2.6103883 -0.60638088 22
-0.23208199 2.6004276 -0.50942481 16
-0.2396522 2.6852503 -0.42999771 13
-0.30967575 3.4698489 -0.42936051 33
-0.31082794 3.482759 -0.30639267 65
-0.37460321 4.1973467 -0.2243955 16
-0.83458781 9.3513737 -0.16546755 12
-0.81497854 9.1316557 2.4512808 9
-0.82118523 9.2012005 2.1293116 7
-0.8237645 9.2301006 1.8000724 3
-0.82536769 9.2480631 1.467 5
-0.82853651 9.2835703 1.1405956 3
-0.82977819 9.2974825 0.81559038 3
-0.83177221 9.3198242 0.49590778 4
-0.83370268 9.3414555 0.16295062 3
-0.21868733 2.540457 -0.68399882 29
-0.22476903 2.6111073 -0.60638088 23
-0.22306961 2.5913653 -0.50750971 13
-0.23036812 2.676151 -0.42842263 15
-0.29792219 3.4609163 -0.42813724 38
-0.29817629 3.4638679 -0.30464685 28
-0.36141503 4.198503 -0.2243955 22
-0.80606306 9.3639107 -0.16564375 10
-0.78628665 9.1341705 2.4512808 9
-0.79227483 9.2037344 2.1293116 9
-0.79392135 9.2228622 1.7981656 3
-0.79546285 9.2407694 1.4654394 4
-0.79851598 9.2762375 1.1393808 3
-0.79971087 9.2901182 0.81471997 3
-0.80248904 9.3223915 0.49590778 4
-0.80435157 9.3440285 0.16295062 3
-0.2115033 2.5507569 -0.68658972 31
-0.21656489 2.6118004 -0.60638088 25
-0.21492749 2.5920532 -0.50750971 17
-0.22277565 2.686703 -0.42999771 16
-0.28622779 3.4519441 -0.42691401 30
-0.28729275 3.4647877 -0.30464685 31
-0.3473981 4.1896658 -0.22386377 13
-0.77664155 9.3663969 -0.16564375 20
-0.75758696 9.1365957 2.4512808 9
-0.76255137 9.1964674 2.1270654 9
-0.764943 9.2253113 1.7981656 3
-0.76561207 9.2333794 1.4638788 4
-0.76936996 9.2787008 1.1393808 3
-0.77052122 9.2925844 0.81471997 2
-0.77237278 9.3149147 0.49537855 3
-0.77416629 9.336545 0.16277689 4
-0.20425671 2.5610368 -0.68918061 29
