# .PCD v0.7 - Point Cloud Data file format
VERSION 0.7
FIELDS x y z intensity
SIZE 4 4 4 4
TYPE F F F F
COUNT 1 1 1 1
WIDTH 1429
HEIGHT 1
VIEWPOINT 0 0 0 1 0 0 0
POINTS 1429
DATA ascii
4.6402731 5.0781865 0.11952028 17
1.3925146 1.5143483 -0.55186266 124
1.4969611 1.627933 -0.51170433 104
1.5279982 1.6616856 -0.44048011 19
3.7097697 4.0343442 -0.8741712 7
4.5816264 4.982481 -0.83425599 13
4.5986729 5.001019 -0.59532708 15
4.603004 5.0057292 -0.36211693 14
4.622345 5.0267625 -0.12035605 16
4.7408166 5.1555996 1.8726856 28
4.7489815 5.1644788 1.6171986 28
4.704349 5.115941 1.3500543 17
4.6934471 5.1040854 1.0955681 14
4.6896095 5.0999122 0.84785479 8
4.659461 5.0671258 0.60146528 8
4.6436205 5.0498996 0.36359516 16
4.6291327 5.0341444 0.11882539 18
1.3970016 1.5102099 -0.55186266 134
1.5084006 1.6306362 -0.51395851 105
1.5262569 1.6499395 -0.43856499 14
3.7686641 4.0740638 -0.88519675 37
4.5829101 4.9542937 -0.83180952 11
4.5931969 4.965414 -0.59270835 8
4.6042743 4.9773889 -0.36105344 14
4.6168709 4.9910064 -0.1198274 12
4.7364125 5.1202354 1.8649365 45
4.7378159 5.1217523 1.6082141 26
4.6995096 5.0803423 1.3443338 15
4.6951556 5.0756354 1.0924468 13
4.6912403 5.0714025 0.84542543 7
4.6541805 5.0313396 0.59885401 8
4.6450214 5.0214381 0.36253664 12
4.6304703 5.0057077 0.11847795 14
1.4014764 1.5060583 -0.55186266 133
1.5065951 1.6190213 -0.51170433 118
1.5311457 1.6454039 -0.43856499 17
3.9018266 4.1929917 -0.91354823 17
4.5908284 4.9334087 -0.83058625 7
4.6011233 4.9444714 -0.59183544 11
4.6054168 4.9490852 -0.35998994 7
4.6180367 4.962647 -0.11947496 11
4.7318401 5.0849428 1.8571875 52
4.7264385 5.0791383 1.5992297 68
4.7011881 5.0520034 1.34052 15
4.6967368 5.0472202 1.0893255 18
4.6859808 5.0356617 0.84178132 6
4.6555152 5.0029225 0.59711313 7
4.6462946 4.9930134 0.36147815 13
4.6248679 4.9699883 0.11795679 11
1.3998598 1.4943538 -0.54927176 134
1.5186163 1.6211265 -0.51395851 126
1.5433036 1.6474802 -0.44048011 27
4.5705786 4.8791037 -1.0663314 17
4.600378 4.9109144 -0.82936305 18
4.6038733 4.9146457 -0.59008962 4
4.6286302 4.9410734 -0.3605217 12
4.6207967 4.9327116 -0.11912253 3
4.7288628 5.0480723 1.8494384 52
4.7299318 5.0492134 1.5947375 40
4.697782 5.0148935 1.3347994 15
4.6999426 5.0172 1.0862043 16
4.6890821 5.0056067 0.83935195 10
4.6584587 4.9729161 0.59537226 4
4.6423454 4.9557147 0.3598904 13
4.6344881 4.9473271 0.11778307 10
1.4111727 1.4969766 -0.55186266 146
1.5303847 1.6234369 -0.5162127 102
3.0902109 3.2781057 -0.87904507 61
4.5723362 4.8503489 -1.0631812 29
4.5817437 4.8603282 -0.82324678 14
4.6056237 4.8856606 -0.5883438 29
4.6235809 4.9047093 -0.35892648 9
4.6225538 4.9036202 -0.1187701 2
4.7248182 5.0121026 1.8416893 49
4.7257185 5.0130572 1.5879991 48
4.7000461 4.9858241 1.3309858 15
4.7021308 4.9880352 1.083083 16
4.6775498 4.9619598 0.83449322 6
4.6603918 4.9437585 0.59363145 12
4.6510415 4.9338398 0.35936114 11
4.636291 4.9181924 0.11743563 11
1.4227777 1.4992949 -0.55445355 157
1.5357597 1.618353 -0.5162127 168
3.1078205 3.2749596 -0.88096023 23
4.5748005 4.8208337 -1.0600311 58
4.5910039 4.8379087 -0.82202351 14
4.6012282 4.8486829 -0.58572501 15
4.6191983 4.8676195 -0.35733125 13
4.6250243 4.8737588 -0.11841767 5
4.7281132 4.9823918 1.8365233 45
4.7221932 4.9761534 1.5812608 53
4.7030396 4.9559693 1.327172 19
4.6982484 4.9509206 1.0784011 16
4.6939788 4.9464216 0.83449322 9
4.656188 4.9065986 0.59102017 6
4.6536293 4.9039021 0.35830265 10
4.631927 4.8810329 0.11691446 8
1.4274808 1.4948176 -0.55445355 142
1.5475649 1.6205662 -0.51846689 146
3.1248722 3.2722781 -0.88287532 28
4.5694623 4.7850122 -1.0553057 15
4.5787621 4.7947507 -0.81713051 15
4.595798 4.8125901 -0.58310628 17
4.6206746 4.8386402 -0.35626775 15
4.6265025 4.8447428 -0.11806523 3
4.7303987 4.9535398 1.8313574 43
4.7176137 4.9401517 1.5745225 41
4.698247 4.9198718 1.3214514 14
4.6933136 4.9147058 1.0737191 18
4.6820745 4.9029365 0.82963443 6
4.6578193 4.8775373 0.58927929 7
4.6552191 4.874814 0.35724413 11
4.6334281 4.851995 0.11656702 10
1.4388622 1.4972899 -0.55704451 158
1.5729003 1.6367707 -0.52522951 144
3.1419377 3.2695217 -0.88479048 39
4.5639448 4.7492723 -1.0505805 18
4.580049 4.7660298 -0.81468403 15
4.5901871 4.7765799 -0.58048755 14
4.6150951 4.8024998 -0.35467252 16
4.6347718 4.8229752 -0.11788902 8
4.7258558 4.9177575 1.8236083 39
4.7263584 4.9182806 1.5722764 76
4.7000766 4.8909316 1.3176377 12
4.6881981 4.878571 1.0690373 21
4.6836991 4.873889 0.82720506 10
4.6593142 4.8485141 0.58753842 6
4.656672 4.8457646 0.35618564 10
4.6417203 4.8302054 0.1163933 9
1.4435591 1.4927621 -0.55704451 156
1.5848073 1.6388248 -0.5274837 130
3.1453707 3.2525795 -0.88287532 41
4.5719781 4.7278118 -1.0490054 38
4.5812006 4.7373486 -0.81223756 11
4.5913205 4.7478137 -0.57874173 17
4.6023932 4.7592635 -0.35254556 10
4.6220989 4.7796412 -0.11718415 21
4.7144194 4.8751082 1.8132762 41
4.7146902 4.8753886 1.5632919 26
4.7017703 4.8620286 1.3138241 10
4.6897688 4.8496175 1.0659159 14
4.6713872 4.8306093 0.82234627 8
4.6468225 4.8052077 0.58405674 7
4.657989 4.8167543 0.35512713 10
4.6360202 4.7940369 0.11587213 7
1.4549775 1.4951416 -0.5596354 161
1.6171266 1.6617668 -0.53650057 82
3.1624186 3.249716 -0.88479048 41
4.5661469 4.6921935 -1.0442802 58
4.5822172 4.7087073 -0.80979103 9
4.585371 4.7119484 -0.576123 9
4.6033931 4.7304683 -0.35148206 11
4.6161723 4.7436004 -0.1166555 12
4.7162366 4.8464265 1.8081102 34
4.7231874 4.8535695 1.5610459 37
4.7033296 4.8331633 1.3100103 10
4.6912036 4.8207026 1.0627947 14
4.6726947 4.8016829 0.8199169 7
4.6480002 4.7763066 0.58231586 7
4.652205 4.7806273 0.35353938 12
4.6510582 4.779449 0.11587213 21
1.4529097 1.4836626 -0.55704451 156
1.6018895 1.6357957 -0.52973795 86
3.1657453 3.2327526 -0.88287532 43
4.5601373 4.6566591 -1.039555 34
4.5830989 4.6801066 -0.80734456 18
4.5862112 4.6832848 -0.57437718 11
4.5972714 4.6945791 -0.34988683 10
4.6100655 4.707644 -0.11612685 13
4.7179203 4.8177814 1.8029442 26
4.7247763 4.8247828 1.5565536 53
4.697885 4.7973223 1.3042897 9
4.6786819 4.7777123 1.0565522 10
4.6738672 4.7727957 0.81748754 9
4.6560121 4.7545633 0.58144546 8
4.6532273 4.751719 0.35248089 12
4.6450634 4.7433825 0.11535097 19
1.4640837 1.4862258 -0.5596354 135
1.5793873 1.6032733 -0.52072114 151
3.1890988 3.2373295 -0.88670558 40
4.5670037 4.6360731 -1.0379798 43
4.5760698 4.6452765 -0.80367482 20
4.5930958 4.66256 -0.57350427 12
4.6041727 4.6738043 -0.3493551 11
4.6169963 4.6868219 -0.11595063 13
4.7186351 4.7899976 1.7977781 42
4.7185555 4.789917 1.5498153 31
4.6914315 4.762383 1.2985692 10
4.6789732 4.7497363 1.0534309 9
4.66711 4.7376938 0.81384343 8
4.6561165 4.7265339 0.57970458 8
4.6462812 4.7165499 0.35089314 12
4.6380668 4.7082109 0.1148298 22
1.482084 1.4955964 -0.56481719 137
1.5978528 1.6124207 -0.52522951 99
3.2055986 3.2348247 -0.88862073 35
4.559886 4.601459 -1.0332546 37
4.5688744 4.6105294 -0.80000502 17
4.5928855 4.6347594 -0.57175839 31
4.5899038 4.6317506 -0.34722811 10
4.6027308 4.6446948 -0.11524576 10
4.7124262 4.7553902 1.790029 46
4.7053103 4.7482095 1.5408309 53
4.6848116 4.7275238 1.2928486 12
4.6721873 4.7147841 1.048749 10
4.6671729 4.7097244 0.81141406 10
4.6490831 4.6914697 0.5770933 9
4.6461973 4.6885571 0.34983462 14
4.644978 4.6873269 0.11465608 29
1.4941181 1.4972506 -0.56740808 146
1.6034715 1.6068333 -0.52522951 188
3.2168708 3.2236152 -0.88862073 32
4.5619693 4.5715337 -1.0301044 41
4.5779295 4.5875278 -0.79878181 19
4.5808892 4.5904932 -0.56826675 25
4.6060438 4.6157007 -0.34722811 6
4.6118531 4.6215224 -0.11506955 12
4.7221727 4.7320733 1.787446 44
4.7080898 4.7179608 1.5363387 51
4.687417 4.6972446 1.2890348 14
4.6746621 4.684463 1.0456277 9
4.6695619 4.6793523 0.8089847 11
4.6583943 4.6681614 0.5762229 9
4.6413736 4.6511049 0.34824687 14
4.6189361 4.6286201 0.11361375 13
1.4782827 1.4721035 -0.5596354 153
1.6223185 1.6155372 -0.52973795 126
3.2339368 3.2204189 -0.89053589 35
4.5623136 4.5432429 -1.0269543 33
4.5712209 4.5521131 -0.79511207 16
4.5741115 4.5549912 -0.56564802 25
4.5992942 4.5800691 -0.34563288 8
4.5980105 4.5787907 -0.11436468 4
4.7027888 4.6831312 1.774531 43
4.7021742 4.682519 1.5296003 36
4.6951952 4.6755691 1.2871281 14
4.6753578 4.6558146 1.0425065 10
4.6631393 4.6436472 0.80534059 12
4.6448011 4.6253858 0.57274115 9
4.6276588 4.608315 0.34612986 16
4.6263695 4.6070313 0.11344003 15
1.5101004 1.4948906 -0.56999898 150
1.6478763 1.6312789 -0.53650057 128
3.2574282 3.2246194 -0.89436615 28
4.5617375 4.5157919 -1.0238041 30
4.5635471 4.5175829 -0.79144228 17
4.5734468 4.5273829 -0.5639022 20
4.6057663 4.5593772 -0.34510115 8
4.6115756 4.5651278 -0.11436468 9
4.7097979 4.6623607 1.771948 45
4.7021961 4.6548357 1.5251081 39
4.6811414 4.6339931 1.2795006 14
4.6751118 4.6280241 1.0393851 19
4.6627884 4.6158247 0.80291122 12
4.6443448 4.5975666 0.57100034 11
4.6342149 4.5875387 0.34560063 17
4.6258073 4.579216 0.11309259 14
1.5076449 1.483629 -0.56740808 147
1.6527091 1.6263824 -0.53650057 109
3.2669816 3.2149403 -0.89436615 27
4.561039 4.4883838 -1.020654 17
4.5627828 4.4900999 -0.7889958 18
4.5797596 4.5068064 -0.56302929 22
4.6050391 4.5316834 -0.34403765 10
4.6108475 4.5373988 -0.11401225 6
4.7029533 4.6280375 1.7641989 31
4.7090411 4.6340289 1.522862 40
4.6808767 4.6063128 1.2756869 14
4.6677022 4.593348 1.0347033 12
4.6623135 4.5880456 0.80048186 15
4.6437645 4.5697918 0.56925946 9
4.6264529 4.5527558 0.34401289 18
4.6251206 4.5514445 0.11274515 14
1.5125566 1.4786212 -0.56740808 151
1.6511266 1.6140823 -0.53424633 117
3.2846432 3.2109499 -0.89628124 25
4.5900211 4.4870405 -1.0238041 95
4.5705504 4.4680066 -0.78777254 14
4.5733089 4.4707031 -0.56041056 20
4.5914783 4.4884653 -0.34191069 10
4.6044192 4.5011158 -0.11348359 7
4.7044582 4.5989103 1.7590328 29
4.7034779 4.5979519 1.5161237 21
4.6750669 4.5701785 1.2699664 15
4.6758451 4.5709395 1.0331426 12
4.6491108 4.544805 0.79562306 11
4.6375217 4.5334759 0.56664819 7
4.6272435 4.523428 0.34295437 19
4.611589 4.5081248 0.11205027 14
1.5241221 1.4805921 -0.56999898 143
1.6561892 1.6088872 -0.53424633 63
3.3087945 3.2142928 -0.9001115 35
4.5615954 4.431313 -1.0143536 26
4.5703268 4.4397945 -0.78532606 8
4.5658951 4.4354897 -0.55779177 11
4.5912313 4.4601026 -0.34084719 12
4.6113658 4.4796615 -0.11330738 10
4.7119536 4.5773768 1.7564499 22
4.7039208 4.5695734 1.5116315 25
4.6753192 4.5417891 1.2661526 15
4.6689277 4.5355797 1.0284606 14
4.6491265 4.5163441 0.7931937 9
4.6445956 4.5119429 0.56577778 32
4.6342688 4.5019107 0.34242514 20
4.6185575 4.4866481 0.11187654 19
1.5151234 1.4621159 -0.56481719 158
0.1 0.1 0.1 -1
3.3123727 3.1964872 -0.8981964 24
4.5620532 4.4024467 -1.0112034 39
4.5921659 4.4315066 -0.78654927 8
4.57341 4.4134068 -0.55691886 6
4.5916252 4.4309845 -0.33978373 10
4.6046114 4.4435163 -0.11277873 9
4.7062521 4.5416007 1.7487009 28
4.6980124 4.5336494 1.5048931 19
4.6691632 4.5058098 1.260432 18
4.6626196 4.499495 1.0237788 18
4.6640778 4.5009022 0.7931937 12
4.6380267 4.4757628 0.5631665 9
4.6348004 4.4726496 0.34136662 15
4.6118259 4.4504786 0.11135538 17
1.505767 1.4439785 -0.5596354 173
1.680608 1.6116451 -0.53875476 165
3.3436503 3.2064455 -0.90394181 18
4.5473514 4.3607531 -1.0049031 24
4.5845752 4.3964496 -0.78287953 18
4.5800629 4.3921223 -0.55604595 5
4.5911083 4.4027143 -0.33872023 9
4.604115 4.4151878 -0.1124263 18
4.692606 4.5000472 1.7383687 34
4.6981654 4.5053787 1.5004009 27
4.6762104 4.4843249 1.2585251 16
4.6696029 4.4779882 1.0222181 17
4.6567025 4.4656172 0.78954959 10
4.6448746 4.4542747 0.56229603 10
4.6344142 4.4442434 0.34030813 19
4.611352 4.4221272 0.11100794 14
1.5240266 1.4528333 -0.56481719 155
3.074589 2.9309628 -0.98283291 1
3.3531492 3.1965106 -0.90394181 20
4.553122 4.3404279 -1.003328 16
4.5616808 4.3485866 -0.77676332 15
4.5786533 4.3647661 -0.55430013 16
4.5969234 4.3821826 -0.3381885 10
4.6099582 4.394609 -0.11225007 10
4.6919522 4.4727726 1.7332028 34
4.6974063 4.477972 1.4959087 26
4.6752849 4.4568839 1.2547115 14
4.6614203 4.4436674 1.0175362 16
4.6627469 4.4449315 0.78833491 10
4.6364384 4.4198523 0.55968475 10
4.625896 4.409802 0.33872038 19
4.6172152 4.4015269 0.11083421 16
1.5143092 1.4350178 -0.5596354 151
3.0691283 2.9084244 -0.97832453 72
3.3697429 3.1932986 -0.90585691 20
4.5444765 4.3065214 -0.99860275 14
4.5673594 4.3282061 -0.77554005 13
4.584353 4.3443098 -0.55342722 14
4.5954084 4.3547869 -0.337125 10
4.6012044 4.3602791 -0.11172143 13
4.6911778 4.4455414 1.7280368 37
4.6894526 4.4439063 1.4891703 49
4.6742373 4.4294877 1.2508978 13
4.6602454 4.4162288 1.0144149 17
4.6543007 4.4105949 0.78469086 10
4.6350698 4.3923712 0.55794388 10
4.6317115 4.3891888 0.33819112 19
4.6084824 4.3671756 0.11031305 17
1.5474443 1.4561995 -0.56999898 143
3.0792618 2.8976934 -0.97832453 125
3.3808692 3.1815164 -0.90585691 22
4.5522895 4.2838645 -0.9970277 24
4.5679841 4.2986331 -0.77309358 13
4.58498 4.3146272 -0.5516814 12
4.5887651 4.3181891 -0.33552977 11
4.5945525 4.3236351 -0.11119278 11
4.6925964 4.4158978 1.7228707 48
4.6978397 4.4208322 1.4869243 22
4.6753726 4.3996897 1.247084 15
4.6684394 4.3931651 1.0128543 13
4.6624393 4.3875194 0.78347611 10
4.6358643 4.3625112 0.55620307 9
4.6251874 4.3524637 0.33660337 18
4.6091356 4.3373585 0.10996561 14
1.5590662 1.4579278 -0.57258993 155
2.2415442 2.096133 -0.71007425 206
3.3908474 3.1708796 -0.90585691 25
4.5585127 4.2627969 -0.99545258 27
4.5669675 4.2707038 -0.77064705 13
4.5839601 4.2865934 -0.54993558 19
4.5804272 4.2832899 -0.33393455 11
4.6008101 4.3023505 -0.11101656 11
4.6993899 4.3945355 1.7202877 40
4.7045875 4.3993959 1.4846781 53
4.6676617 4.3648653 1.2413635 16
4.6605744 4.3582377 1.0081724 11
4.6544504 4.3525114 0.77983207 9
4.634994 4.3343167 0.55446219 12
4.6242504 4.3242707 0.33554485 18
4.6154361 4.3160276 0.10979188 17
1.5636387 1.4530227 -0.57258993 175
2.2124341 2.0559206 -0.69880325 128
3.4079821 3.1668925 -0.90777206 26
4.55018 4.2282882 -0.99072737 22
4.5658212 4.2428226 -0.76820058 10
4.582809 4.2586088 -0.54818976 18
4.5865459 4.2620816 -0.33340281 9
4.5996552 4.2742634 -0.11066413 12
4.6919422 4.3600216 1.7125386 41
4.6898327 4.3580613 1.4756937 42
4.6669693 4.3368154 1.2375498 13
4.6525359 4.3234034 1.0034904 22
4.6535587 4.3243537 0.7774027 12
4.6339927 4.3061714 0.55272132 13
4.6231828 4.2961264 0.33448637 19
4.6143236 4.2878942 0.10944444 16
0.1 0.1 0.1 -1
2.1974089 2.0291312 -0.69204062 130
3.4323359 3.1694875 -0.91160232 22
4.5561862 4.207273 -0.98915225 21
4.5791278 4.2284579 -0.76820058 8
4.5742087 4.2239156 -0.54557103 10
4.5852404 4.2341022 -0.33233932 9
4.5910234 4.2394428 -0.11013547 13
4.6914215 4.3321524 1.7073727 42
4.6963415 4.3366957 1.4734476 53
4.6661468 4.3088131 1.233736 14
4.6588387 4.3020644 1.0019298 14
4.6525364 4.2962451 0.77497327 11
4.6328602 4.2780752 0.55098051 11
4.6219835 4.2680316 0.33342788 17
4.6130805 4.2598104 0.109097 17
2.2701502 2.083127 -0.82649857 1
2.1965945 2.015631 -0.68978643 127
3.4350445 3.1520529 -0.90968716 18
4.5330005 4.1595554 -0.98127681 24
4.5631385 4.1872101 -0.76330757 13
4.5654364 4.1893191 -0.54295224 7
4.5911617 4.212925 -0.33180758 7
4.5969524 4.2182388 -0.10995926 7
4.6907721 4.3043289 1.7022066 40
4.6884031 4.3021555 1.4667093 49
4.6651945 4.2808585 1.2299223 13
4.6504974 4.2673726 0.99724787 12
4.6440701 4.2614746 0.77132922 10
4.6242566 4.2432938 0.54836923 10
4.6206536 4.2399874 0.33236936 17
4.6117063 4.2317772 0.10874955 15
2.2481356 2.0499537 -0.81613493 26
2.1813185 1.9890268 -0.68302381 22
3.459435 3.1544721 -0.91351742 20
4.5387487 4.1386404 -0.97970176 14
4.5616026 4.1594796 -0.76086104 17
4.5785751 4.1749554 -0.54295224 9
4.5969958 4.1917524 -0.33127582 7
4.5954056 4.1903024 -0.10960682 12
4.6899943 4.2765532 1.6970406 40
4.6874948 4.2742734 1.4622171 51
4.664113 4.2529531 1.2261087 11
4.6565824 4.2460861 0.99568725 18
4.6501002 4.2401757 0.77011454 10
4.6375647 4.228745 0.54836923 8
4.6044354 4.1985364 0.33025235 19
4.6102018 4.2037945 0.10840211 19
2.2330925 2.0234249 -0.80836225 21
2.180337 1.9756224 -0.68076962 22
3.4838746 3.1567693 -0.91734767 20
4.5517282 4.124361 -0.97970176 17
4.5525832 4.1251359 -0.7571913 14
4.5916686 4.1605511 -0.54295224 20
4.5879421 4.1571746 -0.32968059 8
4.5863194 4.155704 -0.10907818 6
4.6819296 4.2423377 1.6892915 33
4.6792364 4.2398973 1.4554787 55
4.6701765 4.231688 1.2242018 10
4.6625791 4.2248039 0.99412662 10
4.6486874 4.2122164 0.76768517 10
4.6286798 4.1940875 0.54575795 11
4.6176028 4.1840506 0.33025235 15
4.6085672 4.1758633 0.10805467 21
2.2394383 2.0163994 -0.80836225 14
2.1720524 1.9557247 -0.67626119 19
3.4937747 3.1458087 -0.91734767 18
4.5426469 4.0902176 -0.97497648 16
4.5507693 4.0975308 -0.75474483 16
4.5677009 4.1127763 -0.53858769 19
4.6009793 4.1427407 -0.32968059 9
4.5919218 4.1345849 -0.10890196 7
4.688055 4.2211437 1.6867085 33
4.6852918 4.2186556 1.4532326 31
4.6688576 4.2038579 1.2203881 9
4.6538076 4.1903071 0.98944473 12
4.6397681 4.1776662 0.76404107 10
4.6270266 4.1661935 0.54401708 12
4.6233034 4.1628413 0.32972312 19
4.6068025 4.1479836 0.10770723 18
2.25296 2.0157943 -0.81095314 34
2.1636646 1.9358988 -0.67175281 15
3.5109546 3.1413617 -0.91926283 19
4.5481148 4.0693417 -0.97340143 10
4.5562229 4.0765963 -0.75352156 18
4.573175 4.091764 -0.53771478 14
4.5916457 4.1082902 -0.32808536 13
4.5974369 4.113472 -0.10872574 5
4.6868939 4.1935115 1.6815425 26
4.6767359 4.184423 1.4464943 32
4.6600943 4.1695333 1.2146674 9
4.6522264 4.1624937 0.98632342 10
4.6528697 4.1630692 0.76404107 11
4.6252441 4.1383514 0.5422762 11
4.6140327 4.1283202 0.32813537 18
4.6049085 4.1201568 0.10735979 20
2.2376273 1.9894537 -0.8031804 20
2.1551735 1.916145 -0.66724437 27
3.5281413 3.1368377 -0.92117798 20
4.5608764 4.0550332 -0.97340143 18
4.554173 4.0490732 -0.75107509 17
4.5636725 4.0575194 -0.53509605 12
4.5821414 4.0739398 -0.32649013 13
4.5953927 4.0857215 -0.10837331 14
4.6856055 4.1659288 1.6763765 36
4.6898584 4.1697102 1.4464943 24
4.6584978 4.1418271 1.2108538 13
4.650517 4.1347318 0.98320216 10
4.6362534 4.1220503 0.75918233 9
4.6233325 4.1105618 0.54053539 13
4.6045909 4.0938993 0.32654759 16
4.6028852 4.0923829 0.10701235 25
2.2293897 1.9696244 -0.79799861 39
2.1465802 1.8964638 -0.662736 21
3.5453339 3.1322367 -0.92309308 20
4.5587921 4.0276084 -0.97025126 26
4.5519953 4.0216036 -0.74862856 14
4.5763974 4.0431623 -0.53509605 38
4.5799503 4.0463009 -0.32542667 13
4.5857267 4.0514045 -0.10784466 15
4.6841903 4.1383953 1.6712104 32
4.6810269 4.1356006 1.4397559 35
4.6641297 4.1206722 1.2089469 17
4.6486788 4.1070213 0.9800809 15
4.6417418 4.1008925 0.75796759 10
4.6287575 4.0894213 0.53966492 11
4.6249132 4.0860248 0.32707685 16
4.6007328 4.064662 0.1066649 17
2.206533 1.9371223 -0.78763497 47
0.1 0.1 0.1 -1
0.1 0.1 0.1 -1
4.5565805 4.0002365 -0.9671011 30
4.5646071 4.0072832 -0.74862856 12
4.5741043 4.0156207 -0.53335023 12
4.577631 4.0187168 -0.32436317 12
4.5834045 4.0237856 -0.10749222 11
4.6826487 4.1109123 1.6660444 42
4.6793504 4.1080165 1.4352638 30
4.6549211 4.0865703 1.2032263 12
4.6467128 4.0793638 0.97695959 11
4.6396832 4.0731926 0.75553823 12
4.6266088 4.0617146 0.53792405 10
4.6152139 4.0517106 0.3254891 17
4.5984521 4.0369959 0.10631746 15
2.2126079 1.9301808 -0.78763497 28
3.0321133 2.645081 -0.93098623 31
4.5264435 3.9486685 -1.1720601 1
4.5393586 3.9599349 -0.96080077 40
4.5547366 3.97335 -0.74495882 10
4.5716834 3.9881334 -0.53160441 12
4.5751834 3.9911869 -0.32329968 13
4.5809541 3.9962208 -0.10713979 10
4.6809807 4.0834794 1.6608783 37
4.6848898 4.0868897 1.4330176 34
4.6603394 4.0654731 1.2013195 12
4.644619 4.0517592 0.97383833 17
4.6300173 4.0390215 0.75189418 12
4.6243324 4.0340624 0.53618324 11
4.6128697 4.0240626 0.32443061 18
4.5960431 4.0093837 0.10597002 18
2.1967661 1.904241 -0.77986228 47
3.0477698 2.6419237 -0.93324047 36
0.1 0.1 0.1 -1
4.5443149 3.9391863 -0.95922565 7
4.5596972 3.9525204 -0.74373555 9
4.5691352 3.9607015 -0.52985859 10
4.5801539 3.9702532 -0.32276794 12
4.5934858 3.9818096 -0.10713979 9
4.6645865 4.0434427 1.6505463 35
4.6829796 4.0593863 1.4285254 27
4.6582532 4.0379524 1.1975058 12
4.6498613 4.0306783 0.9722777 10
4.6351833 4.0179543 0.75067949 11
4.6219277 4.006464 0.53444237 10
4.6179428 4.0030103 0.32390136 14
4.6010609 3.9883761 0.10579629 15
2.1881013 1.8847234 -0.7746805 26
3.0486729 2.6259775 -0.93098623 31
0.1 0.1 0.1 -1
4.5417032 3.9120009 -0.95607549 20
4.5720921 3.9381762 -0.74373555 7
4.5664597 3.9333248 -0.52811271 12
4.5699062 3.9362934 -0.32117271 12
4.5908213 3.9543087 -0.10678736 13
4.6699467 4.0224638 1.6479633 35
4.6735597 4.0255756 1.421787 43
4.6560402 4.0104852 1.1936921 12
4.6550174 4.009604 0.97071707 17
4.6402621 3.9968948 0.74946475 10
4.6269436 3.9854226 0.53357196 8
4.6077976 3.9689312 0.32231361 17
4.5984168 3.9608512 0.10544885 12
2.1866739 1.8715596 -0.77208954 50
3.0717111 2.6290572 -0.93549466 35
3.0199351 2.5847425 -0.77562803 1
4.5389657 3.884871 -0.95292532 61
4.5693612 3.910886 -0.74128908 11
4.5560894 3.8995266 -0.52549398 6
4.5746632 3.9154241 -0.32064098 15
4.5804329 3.9203625 -0.10625871 12
4.667882 3.9952092 1.6427972 33
4.6787806 4.0045371 1.419541 38
4.6537008 3.9830716 1.1898783 10
4.6450782 3.9756918 0.96603513 11
4.6377139 3.9693887 0.74703538 11
4.6243043 3.9579115 0.53183109 13
4.6126571 3.9479425 0.32178435 15
4.5956454 3.9333825 0.10510141 14
2.1778276 1.8521662 -0.76690775 33
3.0725336 2.6130824 -0.93324047 72
0.1 0.1 0.1 -1
4.5361032 3.8577969 -0.94977516 10
4.5589437 3.8772221 -0.73761934 11
4.560729 3.8787401 -0.52462107 9
4.5717278 3.8880942 -0.31957749 12
4.5927267 3.9059532 -0.10625871 16
4.6730509 3.9742663 1.6402142 26
4.6839147 3.9835055 1.4172949 42
4.6437573 3.949353 1.1841578 15
4.6500211 3.95468 0.9644745 9
4.6350389 3.9419382 0.74460602 11
4.6215382 3.9304564 0.53009021 9
4.6022162 3.9140236 0.3201966 14
4.5927467 3.9059703 0.10475396 15
2.1615043 1.8266126 -0.75913507 37
3.065845 2.5908399 -0.92873204 43
3.0735986 2.5973923 -0.7852037 20
4.5482001 3.8435273 -0.94977516 36
4.5559406 3.8500683 -0.73517281 13
4.5652828 3.8579631 -0.52374816 9
4.5762925 3.8672671 -0.31904575 9
4.5897012 3.8785985 -0.10590628 18
4.6707559 3.9470947 1.6350482 23
4.6815205 3.9561918 1.4128027 29
4.648644 3.9284086 1.182251 13
4.6473331 3.9273012 0.96135324 21
4.632237 3.9145439 0.74217665 13
4.6186452 3.9030581 0.5283494 13
4.6068625 3.8931005 0.31966734 13
4.5897212 3.8786154 0.10440652 16
2.1524386 1.8073912 -0.75395322 34
3.0888915 2.5937254 -0.93324047 41
3.0967762 2.6003466 -0.78903395 1
4.5375648 3.8101687 -0.94504994 14
4.5528121 3.8229718 -0.73272634 11
4.5621223 3.8307898 -0.52200234 10
4.5807719 3.8464499 -0.31851399 11
4.5942068 3.8577306 -0.10573006 7
4.6831331 3.9324017 1.6350482 20
4.6640763 3.9163997 1.4038182 24
4.645927 3.90116 1.1784372 11
4.6445193 3.8999782 0.95823193 15
4.6293092 3.8872061 0.73974723 11
4.6308846 3.8885288 0.5283494 14
4.603775 3.8657653 0.31860885 14
4.5942268 3.8577476 0.1042328 11
2.1432736 1.7882447 -0.74877143 32
3.0970247 2.5840087 -0.93324047 47
3.1350751 2.6157563 -0.79669446 4
4.5343475 3.783242 -0.94189978 2
4.557179 3.8022916 -0.73150307 14
4.5588369 3.8036747 -0.52025652 8
4.5774984 3.8192451 -0.31745052 13
4.5909491 3.8304677 -0.10537762 9
4.6732106 3.8991027 1.6272992 22
4.6613927 3.8892424 1.399326 34
4.643085 3.8739672 1.1746235 11
4.633996 3.8663838 0.95355004 13
4.6338768 3.8662846 0.73853254 10
4.6277795 3.861197 0.52660853 13
4.6082296 3.8448856 0.31807959 13
4.6063237 3.8432953 0.1042328 24
2.1340098 1.7691739 -0.74358964 25
3.1201277 2.5867026 -0.93774885 43
0.1 0.1 0.1 -1
4.5386081 3.7626755 -0.94032466 2
4.5614614 3.7816217 -0.7302798 13
4.5630946 3.7829759 -0.51938361 15
4.5740991 3.792099 -0.31638703 14
4.5798683 3.7968819 -0.10484897 9
4.6705623 3.8720706 1.6221331 32
4.6585846 3.8621404 1.3948338 16
4.647675 3.8530962 1.1727166 11
4.6385155 3.8455026 0.95198941 10
4.6307173 3.8390377 0.73610318 11
4.616879 3.8275652 0.52399725 13
4.6049104 3.8176429 0.3170211 11
4.5875854 3.8032799 0.10353792 14
2.1395574 1.7624609 -0.74358964 36
3.1357586 2.583082 -0.94000304 18
0.1 0.1 0.1 -1
4.535162 3.735841 -0.9371745 7
4.5503373 3.7483418 -0.72661006 10
4.5595789 3.7559543 -0.51763779 8
4.5705748 3.7650123 -0.31532353 13
4.5840569 3.776118 -0.10467276 26
4.6603341 3.8389516 1.6143841 38
4.6706948 3.847486 1.3948338 41
4.6446033 3.8259933 1.168903 12
4.6353259 3.818351 0.9488681 9
4.6350937 3.8181598 0.73488849 10
4.6135025 3.800374 0.52225637 12
4.6168814 3.8031573 0.3170211 13
4.591794 3.7824917 0.10336419 8
2.1301353 1.7434956 -0.73840779 41
3.1513972 2.5793889 -0.94225729 23
0.1 0.1 0.1 -1
0.1 0.1 0.1 -1
4.5620909 3.7340281 -0.72661006 11
4.5713558 3.7416115 -0.51763779 12
4.5669255 3.7379851 -0.31426007 13
4.5804229 3.7490325 -0.10432032 14
4.664896 3.8181729 1.611801 36
4.6601367 3.8142779 1.3880955 49
4.649004 3.8051655 1.1669961 13
4.6396551 3.7975137 0.94730747 8
4.6317039 3.7910056 0.73245907 10
4.6254191 3.7858615 0.52225637 9
4.6056237 3.7696593 0.31543335 10
4.5881801 3.7553818 0.10301675 12
2.128109 1.730701 -0.7358169 24
3.1594851 2.5694757 -0.94225729 41
3.6245768 2.947715 -0.91160232 63
3.5472379 2.8848186 -0.72926354 171
4.5660992 3.7134154 -0.72538686 10
4.5753593 3.7209463 -0.51676488 9
4.5631514 3.7110183 -0.31319657 12
4.576664 3.7220073 -0.10396789 14
4.6618781 3.7913082 1.6066351 37
4.664537 3.7934706 1.3858494 38
4.6457033 3.7781541 1.1631824 15
4.6362357 3.7704546 0.94418621 18
4.6281891 3.7639105 0.7300297 9
4.6141033 3.7524552 0.51964509 8
4.6019487 3.7425706 0.31437483 13
4.5921979 3.7346406 0.10284303 11
2.126323 1.7175653 -0.733226 29
3.1831462 2.5712283 -0.94676566 19
3.5808859 2.8925076 -0.8981964 1
3.5491028 2.8668344 -0.72768843 40
4.5475054 3.6733072 -0.72049385 10
4.5799236 3.6994936 -0.51589197 16
4.5676646 3.6895909 -0.31266484 12
4.5734253 3.6942446 -0.10361546 15
4.6593943 3.7636871 1.601469 34
4.6619301 3.7657351 1.3813571 29
4.6505699 3.7565591 1.1612755 12
4.6256623 3.7364395 0.93950427 13
4.6252022 3.7360678 0.72760034 9
4.6265216 3.7371335 0.51964509 12
4.5987978 3.7147396 0.31331635 10
4.5967793 3.713109 0.10266931 9
0.1 0.1 0.1 -1
3.1912084 2.5612154 -0.94676566 26
3.6435366 2.9242473 -0.91160232 7
3.5349872 2.8371272 -0.72296321 5
4.5435424 3.6465781 -0.71804732 15
4.5759854 3.6726165 -0.51414609 17
4.5636573 3.6627223 -0.31160134 12
4.5772109 3.6736002 -0.10343924 13
4.656127 3.736937 1.596303 46
4.6585383 3.7388723 1.3768649 46
4.647037 3.7296417 1.1574618 10
4.6296744 3.7157066 0.93794364 10
4.6291752 3.715306 0.72638565 11
4.6227007 3.7101095 0.51790428 11
4.6026578 3.6940231 0.31278709 9
4.5928264 3.6861329 0.10232187 17
2.8544645 2.276243 -0.97936195 1
3.206856 2.5572515 -0.94901985 84
3.6450317 2.906667 -0.90968716 6
3.5207202 2.8075371 -0.71823794 17
4.5472159 3.6260984 -0.71682411 14
4.5563459 3.633379 -0.51065445 15
4.5673342 3.6421413 -0.31106961 11
4.5809121 3.6529686 -0.10326302 14
4.6602907 3.7162678 1.59372 42
4.6626425 3.7181432 1.3746188 45
4.6433811 3.7027836 1.1536481 11
4.6490474 3.7073021 0.93950427 19
4.6253033 3.6883676 0.72395623 10
4.6187558 3.6831465 0.51616341 9
4.5986247 3.6670935 0.3117286 12
4.5887494 3.6592183 0.10197443 8
0.1 0.1 0.1 -1
3.2301466 2.5592649 -0.95352829 11
3.6464522 2.8891063 -0.90777206 6
3.5450032 2.8087277 -0.7213881 5
4.5430269 3.599468 -0.71437758 13
4.5521221 3.606674 -0.50890863 16
4.5630999 3.6153719 -0.31000611 11
4.5766921 3.6261411 -0.10291059 13
4.6567988 3.68961 1.5885539 38
4.6513872 3.6853223 1.3678805 36
4.6472969 3.6820815 1.1517413 10
4.6219616 3.6620083 0.93170106 8
4.6213078 3.6614904 0.72152686 9
4.6146874 3.656245 0.51442254 8
4.6022959 3.6464269 0.31119934 13
4.5923858 3.6385753 0.1018007 9
2.8607278 2.2527883 -0.976771 50
3.237726 2.5496695 -0.95352829 49
3.6318755 2.8600576 -0.90202665 7
3.5378046 2.7859778 -0.71823794 7
4.5458894 3.5798323 -0.71315432 14
4.5549769 3.5869884 -0.50803572 15
4.5581164 3.5894608 -0.30894262 11
4.5717206 3.600174 -0.10255816 12
4.6525459 3.6638231 1.583388 32
4.6546454 3.6654766 1.3656343 41
4.642777 3.6561301 1.1479275 12
4.6250463 3.6421676 0.93014044 7
4.6321516 3.6477625 0.72152686 9
4.6255155 3.6425369 0.51442254 11
4.597404 3.6203992 0.31014085 15
4.5795956 3.6063757 0.10127954 22
2.8978226 2.2681024 -0.98713464 41
3.2376046 2.5340469 -0.9512741 42
3.6326163 2.8432195 -0.9001115 6
3.5460551 2.7754688 -0.71823794 6
4.5486755 3.5602114 -0.71193111 14
4.557755 3.567318 -0.50716281 16
4.553019 3.5636115 -0.30787915 11
4.5587616 3.5681062 -0.1020295 15
4.648181 3.6380939 1.5782219 41
4.6578274 3.6456437 1.3633883 28
4.645874 3.6362882 1.1460207 10
4.6358328 3.6284287 0.93014044 21
4.6195049 3.6156492 0.71788281 11
4.6206131 3.6165166 0.51268166 6
4.6002617 3.6005878 0.30961159 15
4.5824022 3.5866094 0.10110582 9
2.9057221 2.2579734 -0.98713464 30
3.2618163 2.5346863 -0.95578247 46
3.634769 2.8244996 -0.8981964 10
3.547924 2.7570145 -0.71666288 13
4.5454016 3.5321321 -0.70948458 14
4.5544472 3.5391614 -0.50541699 15
4.5654306 3.5476966 -0.30787915 11
4.5632939 3.5460362 -0.10185329 9
4.653224 3.6159189 1.5756389 33
4.6551356 3.6174042 1.358896 39
4.6430359 3.6080022 1.1422069 8
4.6250715 3.5940423 0.92545855 9
4.6242599 3.5934114 0.71666813 8
4.6253428 3.5942528 0.51181126 11
4.604917 3.5783806 0.30908233 16
4.5869989 3.5644569 0.1009321 17
3.1192205 2.4081998 -1.0570891 39
3.269763 2.5244265 -0.95578247 23
3.6203177 2.7950728 -0.89245099 11
3.5409348 2.7337852 -0.71351272 7
4.5564756 3.5178351 -0.70948458 13
4.5655432 3.5248358 -0.50541699 12
4.5686493 3.5272341 -0.30734739 12
4.5585833 3.5194623 -0.10150085 9
4.6492672 3.5894749 1.5704728 35
4.6510506 3.590852 1.3544039 35
4.6465778 3.5873988 1.1403002 11
4.6285214 3.5734582 0.92389792 9
4.6276693 3.5728004 0.71545339 10
4.628726 3.5736163 0.51094085 10
4.592423 3.5455885 0.30749458 21
4.582346 3.5378084 0.10058466 18
3.2570529 2.4983215 -1.1011344 18
3.2776778 2.5141418 -0.95578247 31
3.6212931 2.7777119 -0.89053589 5
3.5886834 2.7526987 -0.7213881 57
4.5517545 3.4914222 -0.7070381 14
4.5607858 3.4983494 -0.50367117 10
4.5638614 3.5007086 -0.30628392 9
4.5696177 3.5051239 -0.10150085 7
4.6451902 3.5630918 1.5653068 28
4.6468449 3.5643611 1.3499116 34
4.6344581 3.5548599 1.1345795 13
4.6318874 3.5528879 0.92233723 8
4.6231189 3.5461621 0.71302402 9
4.6162167 3.5408678 0.50832957 13
4.5876923 3.5189881 0.30643609 23
4.5855041 3.5173099 0.10041093 20
3.2802496 2.4997854 -1.1063162 33
3.3010578 2.5156429 -0.96029091 9
3.6456144 2.7782197 -0.89436615 15
3.6208768 2.7593677 -0.72611338 7
4.5469127 3.4650736 -0.70459157 13
4.5559068 3.4719279 -0.50192535 13
4.5668941 3.4803009 -0.30575216 8
4.5726542 3.4846904 -0.10132464 11
4.6563611 3.548481 1.5653068 23
4.65802 3.5497451 1.3499116 18
4.6299877 3.5283825 1.1307658 12
4.6273136 3.526345 0.91921598 12
4.6263423 3.5256045 0.71180934 10
4.6114707 3.5142715 0.5065887 11
4.5907822 3.4985054 0.30590683 23
4.5885792 3.4968264 0.10023721 19
3.2880867 2.4894679 -1.1063162 22
3.3089447 2.5052598 -0.96029091 22
3.6386743 2.7549038 -0.89053589 10
3.6610203 2.7718225 -0.73241371 7
4.557776 3.450772 -0.70459157 13
4.5588498 3.4515846 -0.50105244 10
4.5618825 3.453881 -0.30468869 6
4.5596647 3.4522018 -0.10079599 10
4.6443796 3.516341 1.5575578 26
4.6613798 3.529212 1.3476654 33
4.6332231 3.507894 1.1288589 14
4.6226192 3.4998658 0.91609472 14
4.6294818 3.5050614 0.71059465 11
4.6145463 3.4937534 0.50571829 10
4.5858274 3.4720101 0.30484834 20
4.5835991 3.4703228 0.09988977 21
3.3190475 2.4965436 -1.114089 23
3.3167989 2.4948521 -0.96029091 20
3.6551547 2.7493589 -0.89245099 2
3.6618185 2.7543712 -0.7308386 6
4.5527315 3.4245043 -0.7021451 11
4.5617094 3.4312575 -0.50017953 37
4.5727105 3.4395323 -0.30468869 9
4.5624971 3.43185 -0.10061977 7
4.6554036 3.5017328 1.5575578 23
4.6568694 3.5028353 1.3431733 27
4.6285305 3.4815195 1.1250453 14
4.6178041 3.4734511 0.9129734 13
4.616673 3.4726002 0.70695055 10
4.6095767 3.4672625 0.50397742 9
4.5887322 3.4515834 0.30431908 25
4.5864882 3.4498959 0.099716045 22
3.3423481 2.4976673 -1.1192708 27
3.3402288 2.4960837 -0.96479928 28
3.6401875 2.7202368 -0.88670558 8
3.6941848 2.7605877 -0.73556387 7
4.5555172 3.4042435 -0.70092183 10
4.5565066 3.404983 -0.49843368 9
4.5754943 3.4191723 -0.30415693 8
4.573256 3.4174995 -0.10061977 12
4.6431656 3.4697413 1.5498087 22
4.6444335 3.4706888 1.336435 29
4.6237183 3.4552088 1.1212316 14
4.6207814 3.4530141 0.91141278 13
4.6196084 3.4521377 0.70573586 10
4.6124668 3.4468007 0.50310701 12
4.5835543 3.4251952 0.30326059 25
4.5973039 3.4354699 0.099716045 28
3.3346682 2.4756403 -1.114089 23
3.3480539 2.4855778 -0.96479928 34
3.6565959 2.7146378 -0.88862073 16
3.7028391 2.7489686 -0.73556387 5
4.5582204 3.3839989 -0.69969863 9
4.5591826 3.3847134 -0.49756077 11
4.5781956 3.3988285 -0.3036252 10
4.559886 3.3852355 -0.10009112 7
4.6385298 3.4436202 1.5446427 26
4.6396656 3.4444637 1.3319427 30
4.6187868 3.4289629 1.1174178 17
4.6236758 3.4325926 0.90985215 12
4.6144915 3.4257743 0.7033065 9
4.607275 3.4204168 0.50136614 12
4.5862741 3.4048262 0.30273134 20
4.5920181 3.4090903 0.099368602 29
3.3342266 2.460001 -1.1114981 23
3.3632538 2.4814172 -0.96705353 21
3.6804302 2.7154307 -0.89245099 8
3.7189257 2.7438328 -0.73713893 7
4.5602546 3.3645673 -0.69847536 12
4.545157 3.3534284 -0.49494201 8
4.5641537 3.367444 -0.30202997 11
4.5618644 3.3657553 -0.099914901 9
4.6409531 3.4241068 1.5420597 30
4.6341829 3.4191117 1.3274505 30
4.6210408 3.4094157 1.1155109 16
4.6179433 3.4071302 0.90673089 15
4.6166482 3.4061747 0.70209181 10
4.6013703 3.3949027 0.49962527 11
4.5883207 3.3852746 0.30220208 19
4.5940671 3.3895144 0.099194884 22
3.3493001 2.4558084 -1.114089 24
3.3706014 2.4714272 -0.96705353 23
3.6963861 2.7103024 -0.89436615 9
3.7111228 2.7211077 -0.73398876 8
4.5462055 3.3334157 -0.69480562 15
4.5470529 3.3340373 -0.4940691 17
4.5580187 3.3420777 -0.30096647 12
4.5637679 3.346293 -0.099738687 7
4.6433015 3.4046094 1.5394766 30
4.6364489 3.3995848 1.3252044 29
4.62322 3.3898852 1.1136041 16
4.6200666 3.387573 0.90517026 14
4.6187296 3.3865926 0.70087713 9
4.6033893 3.3753445 0.49875486 9
4.590292 3.3657413 0.30167282 21
4.5799141 3.3581319 0.098673716 18
3.3652334 2.4503736 -1.1166799 28
3.3945305 2.4717059 -0.97156191 21
3.7132878 2.7038071 -0.89628124 8
3.7360921 2.720412 -0.73713893 5
4.5572343 3.3183217 -0.69480562 13
4.5500312 3.3130765 -0.49319619 9
4.5529313 3.3151884 -0.29990301 15
4.550591 3.3134844 -0.099210039 11
4.6311369 3.3721333 1.5317277 26
4.6319418 3.3727193 1.3207122 34
4.6265001 3.368757 1.1116972 13
4.6153049 3.3606052 0.90204895 17
4.6058621 3.3537295 0.69723302 8
4.6065035 3.3541968 0.49788442 7
4.5933552 3.3446226 0.30114359 24
4.5748591 3.3311551 0.098326273 22
3.3807406 2.4454501 -1.1192708 30
3.4022787 2.4610295 -0.97156191 21
3.7456212 2.7093854 -0.90202665 10
3.7606227 2.7202368 -0.74028909 4
4.5435119 3.2865376 -0.69113588 10
4.5604167 3.2987659 -0.49319619 18
4.555233 3.2950161 -0.29937124 12
4.5528769 3.2933118 -0.099033818 14
4.6417079 3.3575675 1.5317277 25
4.6425147 3.358151 1.3207122 31
4.6211529 3.3426993 1.1078836 15
4.6178365 3.3403003 0.90048832 16
4.6083326 3.3334258 0.69601834 8
4.6089468 3.3338697 0.49701399 12
4.5795665 3.3126178 0.29955584 26
4.5690994 3.3050463 0.09797883 24
3.4040935 2.4460893 -1.1244526 31
3.4179053 2.4560142 -0.9738161 23
3.7461441 2.6918776 -0.9001115 6
3.7851889 2.7199342 -0.74343926 12
4.5457544 3.2664561 -0.68991262 11
4.5545778 3.2727964 -0.49145037 8
4.5574527 3.2748618 -0.29883951 7
4.563201 3.2789924 -0.099033818 14
4.6365423 3.3316936 1.5265616 22
4.6451283 3.3378632 1.3184661 26
4.6156878 3.3167083 1.1040698 13
4.6042438 3.3084848 0.89580643 14
4.6107216 3.3131397 0.69480366 10
4.5951276 3.301934 0.49440271 11
4.5737319 3.2865598 0.29849732 21
4.5794601 3.2906759 0.09797883 21
3.4196227 2.4409945 -1.1270435 33
3.4414635 2.4565849 -0.97832453 31
3.7945247 2.708607 -0.90968716 9
3.8097904 2.7195041 -0.74658942 4
4.555994 3.2521591 -0.68991262 11
4.5567293 3.2526839 -0.49057746 9
4.5595908 3.2547264 -0.29830778 17
4.5572038 3.2530227 -0.09868139 5
4.6312604 3.3058858 1.5213956 25
4.6476603 3.3175924 1.3162199 20
4.6180954 3.296488 1.102163 13
4.614615 3.2940037 0.89580643 13
4.6130285 3.2928715 0.69358897 7
4.5892615 3.2759061 0.49266186 13
4.5759068 3.2663732 0.29796809 16
4.5653615 3.2588458 0.09745767 19
3.4434578 2.4408121 -1.1322253 31
3.4654877 2.4564273 -0.98283291 29
3.8034859 2.6960092 -0.90968716 7
3.8349006 2.7182767 -0.74973959 4
4.5424623 3.2198148 -0.68624288 12
4.5512362 3.2260337 -0.48883161 7
4.562212 3.2338138 -0.29777601 18
4.5598092 3.2321105 -0.098505169 4
4.6343164 3.2849233 1.5188125 19
4.6347866 3.2852566 1.3094816 24
4.6129842 3.2698023 1.0983492 14
4.6013374 3.2615471 0.89112449 10
4.6077271 3.2660758 0.69115955 10
4.5919724 3.2549088 0.49179143 6
4.5704193 3.2396314 0.29690957 18
4.5843005 3.2494705 0.097631395 18
3.4353144 2.4188609 -1.1270435 50
3.4731877 2.445528 -0.98283291 19
3.8119369 2.6840467 -0.90968716 7
3.8434215 2.7062156 -0.74973959 4
4.536325 3.1941004 -0.68379635 11
4.5613484 3.2117198 -0.48883161 17
4.5478539 3.2022181 -0.29618078 8
4.5617652 3.2120132 -0.098328955 16
4.6367145 3.264786 1.5162295 21
4.6450849 3.2706797 1.3094816 17
4.6152072 3.2496426 1.0964423 16
4.6115613 3.2470756 0.89112449 16
4.6017327 3.240155 0.68873018 8
4.5858846 3.2289958 0.49005058 10
4.5887394 3.2310061 0.29743883 17
4.5781355 3.2235398 0.097283952 15
0.1 0.1 0.1 -1
3.5127878 2.4569404 -0.99184972 52
3.8525214 2.6945596 -0.91734767 6
3.8680887 2.7054477 -0.75288975 15
4.5382042 3.174145 -0.68257308 9
4.546926 3.1802452 -0.48621288 11
4.5497088 3.1821914 -0.29564905 9
4.5636401 3.1919355 -0.098152734 5
4.6390314 3.2446663 1.5136465 19
4.6393666 3.2449007 1.3049895 37
4.6173491 3.229501 1.0945356 15
4.6055512 3.2212493 0.88800323 13
4.6037555 3.2199934 0.6875155 7
4.5878425 3.2088633 0.48918015 8
4.5743179 3.199404 0.29585108 17
4.5800467 3.2034109 0.097110227 15
0.1 0.1 0.1 -1
3.7365191 2.5959814 -1.0527133 159
3.8609676 2.6824431 -0.91734767 6
3.909009 2.7158203 -0.75919008 10
4.5481539 3.1598721 -0.68257308 9
4.5405326 3.154577 -0.48446706 13
4.5514827 3.1621847 -0.29511732 7
4.5654345 3.1718779 -0.097976521 8
4.6412683 3.2245643 1.5110635 17
4.6335325 3.2191899 1.3004972 20
4.6113486 3.2037773 1.0907218 15
4.6075368 3.201129 0.8864426 15
4.6056972 3.1998508 0.68630081 10
4.5815382 3.1830661 0.4874393 5
4.567945 3.1736221 0.29479256 17
4.5736656 3.1775966 0.096762784 15
0.1 0.1 0.1 -1
3.7606933 2.5952973 -1.0572217 67
3.8612978 2.6647258 -0.91543257 6
4.3807969 3.0232379 -0.84896988 1
4.5417213 3.1342936 -0.68012661 13
4.5422215 3.1346388 -0.48359415 6
4.5449567 3.1365266 -0.29405382 7
4.5671473 3.1518407 -0.097800307 8
4.6354737 3.1989932 1.5058975 22
4.635603 3.1990826 1.298251 14
4.6133113 3.1836989 1.088815 12
4.6013112 3.1754177 0.88332129 15
4.6075578 3.179728 0.68508613 7
4.5997148 3.1743155 0.48830971 9
4.5696735 3.153584 0.29426333 15
4.5753965 3.1575334 0.096589066 14
0.1 0.1 0.1 -1
3.7929356 2.5999954 -1.0639843 44
4.4930038 3.0798807 -1.0628977 27
4.5368872 3.109962 -0.87732136 1
4.5351729 3.1087868 -0.67768013 11
4.5438299 3.1147213 -0.48272124 10
4.5465517 3.1165867 -0.29352209 6
4.5522861 3.1205177 -0.097271651 9
4.6215959 3.1680284 1.4981484 18
4.6456304 3.1845036 1.298251 13
4.6151938 3.1636398 1.0869081 12
4.6031175 3.1553617 0.88176066 11
4.60115 3.1540132 0.68265671 9
4.5932307 3.1485844 0.48656887 6
4.5795584 3.1392124 0.29426333 15
4.5770469 3.1374907 0.096415341 13
0.1 0.1 0.1 -1
3.7849789 2.5771003 -1.0594759 36
4.5188832 3.076798 -1.0667279 8
0.1 0.1 0.1 -1
4.5367131 3.0889382 -0.67645687 7
4.5453587 3.0948246 -0.48184833 8
4.5480661 3.096668 -0.29299033 6
4.5455375 3.0949464 -0.096919216 6
4.6235404 3.1480565 1.4955654 20
4.6233931 3.1479564 1.2892666 33
4.6088815 3.1380756 1.0830944 13
4.6048431 3.1353259 0.88020003 11
4.6028314 3.1339562 0.68144202 6
4.5948648 3.1285322 0.48569843 9
4.5811434 3.1191897 0.29373407 12
4.5868807 3.123096 0.096415341 22
3.3842878 2.2887516 -1.0959526 53
3.7930562 2.5651968 -1.0594759 77
4.5366573 3.0680847 -1.0686431 19
4.5236173 3.0592661 -0.87102103 2
4.5463948 3.0746703 -0.67645687 7
4.555059 3.0805295 -0.48184833 11
4.5495 3.0767703 -0.29245859 5
4.5469561 3.0750499 -0.096743003 5
4.6174026 3.1226919 1.4903994 17
4.6332598 3.1334159 1.2892666 16
4.6105857 3.1180818 1.0811876 12
4.6064882 3.1153107 0.8786394 12
4.6044321 3.11392 0.68022734 7
4.5881667 3.1029201 0.48395759 6
4.5826483 3.0991881 0.29320481 13
4.5718226 3.091867 0.09589418 11
3.3754261 2.2673371 -1.0907708 39
3.8334463 2.5749979 -1.0684927 39
4.521831 3.0373991 -1.0628977 7
4.5659957 3.0670652 -0.87732136 46
4.5477934 3.0548382 -0.6752336 6
4.5564446 3.0606494 -0.48097539 7
4.5508542 3.0568943 -0.29192686 6
4.5565944 3.06075 -0.096743003 6
4.6191707 3.1027837 1.4878163 17
4.6349916 3.1134112 1.2870206 21
4.6203585 3.1035817 1.0811876 11
4.5998535 3.0898082 0.87551808 9
4.6059523 3.0939047 0.67901266 7
4.5896225 3.0829358 0.48308715 8
4.5757833 3.0736394 0.29214633 10
4.5649137 3.0663385 0.095546737 13
3.3986015 2.2674425 -1.0959526 1
3.8577259 2.5737562 -1.0730011 57
4.5313511 3.0231783 -1.0628977 8
4.5509644 3.0362637 -0.87259609 13
4.5325994 3.0240111 -0.67156386 5
4.5494637 3.0352626 -0.47922957 7
4.5521288 3.0370405 -0.2913951 5
4.5578699 3.0408709 -0.096566789 4
4.6288953 3.0882568 1.4878163 17
4.6285381 3.0880184 1.2825283 19
4.6137543 3.078155 1.0773739 10
4.6095381 3.0753422 0.87551808 18
4.5991354 3.0684018 0.67658329 7
4.5827112 3.0574441 0.48134631 6
4.5854168 3.0592492 0.29214633 11
4.5745244 3.0519824 0.095546737 9
3.4218106 2.2674246 -1.1011344 19
3.857671 2.5562425 -1.0707469 6
4.5162811 2.9926631 -1.0571523 6
4.5357852 3.0055871 -0.86787087 12
4.5586243 3.0207212 -0.67401034 7
4.5506725 3.0154524 -0.47835666 3
4.5533233 3.0172086 -0.29086336 7
4.5507312 3.0154912 -0.096214354 4
4.6224685 3.0630269 1.4826504 17
4.6219707 3.0626969 1.2780361 20
4.6152186 3.058223 1.075467 11
4.6027088 3.0499334 0.87239683 9
4.6004782 3.0484552 0.67536861 7
4.5839896 3.0375292 0.48047587 6
4.5700321 3.0282805 0.29055858 9
4.5674205 3.0265501 0.095199294 11
3.4047132 2.2407341 -1.0933617 9
3.8819592 2.5548227 -1.0752553 14
4.5256605 2.9784601 -1.0571523 7
4.5452051 2.9913228 -0.86787087 10
4.5432196 2.9900162 -0.6703406 5
4.5518022 2.9956646 -0.47748375 5
4.537755 2.9864197 -0.28926814 5
4.5434785 2.9901865 -0.095861919 8
4.6159286 3.037868 1.4774843 22
4.6234298 3.0428045 1.27579 15
4.6166034 3.0383122 1.0735601 10
4.612268 3.0354586 0.87239683 10
4.6100321 3.0339873 0.67536861 6
4.5768661 3.0121601 0.47873503 6
4.5878649 3.0193982 0.29108781 9
4.5685544 3.0066895 0.095025569 11
3.4279051 2.2405956 -1.0985435 16
3.8981214 2.547945 -1.0775095 7
4.5267797 2.9588578 -1.0552372 5
4.5380478 2.966223 -0.8647207 8
4.5359755 2.9648683 -0.66789412 5
4.5528522 2.9758995 -0.47661084 4
4.5554733 2.9776127 -0.28979987 4
4.5528498 2.975898 -0.095861919 4
4.6092768 3.0127804 1.4723183 23
4.6166525 3.0176017 1.2712978 26
4.6096921 3.013052 1.0697464 10
4.6135135 3.0155497 0.8708362 9
4.6029239 3.0086281 0.67293918 6
4.5863066 2.9977665 0.47873503 6
4.5806103 2.9940431 0.29002932 9
4.5779777 2.9923222 0.095025569 8
3.4106236 2.2140386 -1.0907708 15
3.8979349 2.5303814 -1.0752553 13
4.5278206 2.9392776 -1.053322 6
4.5390611 2.9465747 -0.86314559 6
4.536943 2.9451995 -0.66667086 4
4.5705347 2.9670057 -0.47748375 6
4.5648055 2.9632866 -0.28979987 5
4.5537901 2.956136 -0.095685706 4
4.6187191 2.9982853 1.4723183 21
4.6342835 3.008389 1.2735438 21
4.6109014 2.9932103 1.0678395 11
4.5981092 2.9849064 0.86615425 7
4.6040277 2.9887483 0.6717245 6
4.5873461 2.9779191 0.47786459 5
4.5732417 2.9687634 0.28897083 9
4.578969 2.9724813 0.094851851 12
3.393209 2.1876123 -1.0829982 27
3.9222419 2.5286813 -1.0797637 13
4.5287833 2.9197204 -1.0514069 6
4.5316963 2.9215984 -0.85999542 6
4.5545144 2.9363096 -0.66789412 6
4.5547152 2.9364388 -0.47486502 4
4.5573068 2.9381096 -0.2887364 3
4.5546513 2.9363976 -0.095509484 3
4.6118765 2.9732909 1.4671522 17
4.6273317 2.9832549 1.2690517 23
4.6037807 2.9680717 1.0640259 10
4.5991626 2.9650941 0.86459363 17
4.5967093 2.9635127 0.66929513 4
4.588306 2.9580948 0.47699416 7
4.5741529 2.9489703 0.28844157 7
4.5798812 2.9526637 0.094678126 8
3.2048459 2.0519495 -1.0208164 9
3.9301665 2.5163467 -1.0797637 20
4.4800725 2.8684323 -1.0380009 11
4.524219 2.8966978 -0.85684526 6
4.5386415 2.9059317 -0.66422439 5
4.5387492 2.9060006 -0.47224626 3
4.5581045 2.9183934 -0.28820464 3
4.5638537 2.9220743 -0.095509484 4
4.6130586 2.9535785 1.4645692 16
4.6284742 2.9634488 1.2668055 13
4.6048155 2.9483008 1.062119 9
4.6001363 2.9453049 0.863033 10
4.6059966 2.9490571 0.66929513 6
4.5807967 2.9329224 0.47525331 4
4.574985 2.9292011 0.28791231 8
4.5807142 2.9328697 0.094504409 6
3.2194269 2.0470536 -1.0234073 14
0.1 0.1 0.1 -1
4.1080713 2.612093 -0.94990492 6
4.5332971 2.8824701 -0.85684526 10
4.5477481 2.891659 -0.66422439 5
4.5478563 2.8917274 -0.47224626 3
4.5588241 2.8987012 -0.28767291 4
4.5645738 2.9023573 -0.095333271 3
4.6060104 2.9287045 1.4594032 15
4.6130924 2.9332078 1.2600672 13
4.6057715 2.9285526 1.0602121 8
4.6010313 2.9255385 0.86147237 7
4.5984864 2.9239206 0.66686577 4
4.5815816 2.9131718 0.47438288 5
4.575738 2.909456 0.28738308 6
4.5730309 2.9077349 0.094156966 5
3.2013419 2.0214591 -1.0156345 8
3.2127366 2.0286541 -0.87913954 1
4.0996594 2.5886936 -0.94607466 6
4.1248364 2.6045916 -0.77809113 6
4.5148506 2.8508625 -0.65810812 8
4.5484953 2.872107 -0.47137335 4
4.5594645 2.8790336 -0.28714117 2
4.5736694 2.8880029 -0.095333271 3
4.6070199 2.9090619 1.4568202 14
4.6222849 2.9187007 1.2600672 18
4.6066489 2.9088275 1.0583053 7
4.6018476 2.9057961 0.85991174 7
4.5908642 2.8988605 0.66443634 5
4.5822878 2.893445 0.47351247 4
4.5764122 2.889735 0.28685382 5
4.5821433 2.8933539 0.094156966 5
3.2076766 2.0113916 -1.0156345 8
0.1 0.1 0.1 -1
3.2263472 2.0230992 -0.74307078 4
4.0995331 2.5706353 -0.77179074 4
4.1285839 2.5888519 -0.60061538 7
4.5490561 2.8525112 -0.47050044 4
4.5600266 2.8593903 -0.28660941 3
4.5657778 2.8629968 -0.094980836 2
4.6079516 2.889442 1.4542372 13
4.6149201 2.8938115 1.2555751 16
4.6074476 2.8891261 1.0563984 8
4.5942173 2.8808296 0.85679042 6
4.5999484 2.8844235 0.66443634 4
4.5744753 2.8684504 0.4717716 4
4.5854678 2.8753433 0.28685382 5
4.5742688 2.8683209 0.093809523 3
3.197582 1.9910939 -1.0104527 8
3.2254195 2.0084279 -0.87913954 4
3.232687 2.0129533 -0.74307078 6
3.2525399 2.0253153 -0.61113226 16
4.1114216 2.5601304 -0.59694564 4
4.5410819 2.8276744 -0.46875462 7
4.5520334 2.8344936 -0.28554595 3
4.5662622 2.8433537 -0.094804622 5
4.6088057 2.8698449 1.4516542 11
4.6157165 2.8741484 1.2533289 11
4.6081681 2.8694482 1.0544915 5
4.6116295 2.8716035 0.85835111 5
4.6005616 2.8647115 0.66322166 4
4.5834641 2.8540652 0.4717716 4
4.5775247 2.8503666 0.2857953 4
4.5832572 2.8539364 0.093809523 4
3.2038214 1.9810386 -1.0104527 7
3.2399998 2.0034089 -0.88139373 40
3.2389948 2.0027876 -0.74307078 5
3.2420881 2.0047002 -0.6079821 12
3.2330885 1.9991355 -0.46850449 7
4.1178255 2.5462003 -0.42423603 4
4.2211828 2.6101098 -0.26427624 13
4.5581641 2.8184779 -0.094452187 3
4.6177988 2.8553519 1.4516542 10
4.6081471 2.8493838 1.2488366 13
4.6004615 2.8446317 1.0506779 5
4.603826 2.8467119 0.85522979 6
4.6010962 2.8450241 0.66200697 3
4.5839348 2.8344126 0.47090119 3
4.5864568 2.8359718 0.2857953 5
4.5836964 2.8342652 0.093635798 3
3.2100291 1.9709637 -1.0104527 8
3.2296727 1.9830247 -0.87688535 4
3.2369068 1.9874666 -0.74115568 5
3.2231236 1.9790037 -0.60325688 11
3.2478108 1.9941617 -0.46972772 5
3.2514055 1.9963689 -0.33432591 11
4.1272445 2.5341356 -0.25789532 4
4.1494908 2.5477951 -0.085817561 14
4.610281 2.8307209 1.4464881 9
4.6170759 2.834893 1.2488366 6
4.6177411 2.8353014 1.0525846 4
4.6127462 2.8322346 0.85522979 4
4.6100111 2.8305552 0.66200697 3
4.5928168 2.8199978 0.47090119 7
4.5783238 2.8110991 0.28473681 4
4.5499754 2.7936931 0.092767194 6
3.199712 1.9508137 -1.005271 7
3.2358866 1.9728687 -0.87688535 30
3.2263741 1.9670691 -0.73732537 4
3.2293248 1.9688681 -0.60325688 8
