# .PCD v0.7 - Point Cloud Data file format
VERSION 0.7
FIELDS x y z intensity
SIZE 4 4 4 4
TYPE F F F F
COUNT 1 1 1 1
WIDTH 1346
HEIGHT 1
VIEWPOINT 0 0 0 1 0 0 0
POINTS 1346
DATA ascii
-0.89208978 1.4089677 -0.088801064 127
-0.87716919 1.3854021 -0.028899549 135
-62.014645 97.946007 30.996174 -1
-6.0884776 9.6161489 2.6234555 227
-63.015209 99.526299 22.882277 -1
-0.83485252 1.318567 0.24658085 121
-0.83895028 1.3250391 0.19192129 23
-0.83667183 1.3214406 0.13665709 19
-0.83868235 1.324616 0.083092339 84
-0.88252163 1.3938558 0.028664021 49
-0.88940936 1.4145472 -0.44822648 157
-0.87640899 1.3938709 -0.38096046 135
-0.87768716 1.3959038 -0.321742 93
-0.87782085 1.3961165 -0.2630389 126
-0.87167519 1.3863422 -0.20183614 131
-0.89082599 1.4168003 -0.14664948 141
-0.88765901 1.4117634 -0.088801064 132
-0.88345653 1.4050796 -0.029251983 162
-61.706635 98.14035 30.996174 -1
-6.0374899 9.602232 2.614471 226
-62.702229 99.723778 22.882277 -1
-0.82544833 1.3128214 0.24502023 115
-0.82949996 1.3192652 0.1907066 22
-0.82721364 1.315629 0.13578667 17
-0.83451682 1.3272443 0.083092339 63
-0.8834604 1.4050858 0.028837742 76
-0.88496107 1.4173344 -0.44822648 153
-0.87718564 1.4048815 -0.38321468 135
-0.86290103 1.3820035 -0.31791171 96
-0.86820036 1.3904909 -0.26146382 120
-0.86731553 1.3890737 -0.20183614 127
-0.8863706 1.4195919 -0.14664948 133
-0.8885082 1.4230154 -0.089332812 130
-0.87374258 1.3993672 -0.029075766 156
-61.398014 98.333725 30.996174 -1
-5.9969721 9.6046209 2.6099789 225
-62.388626 99.920273 22.882277 -1
-0.82131994 1.3154081 0.24502023 115
-0.82009429 1.3134452 0.1894919 15
-0.82307637 1.3182212 0.13578667 25
-0.84092069 1.3468003 0.084150843 62
-0.8737464 1.3993733 0.028664021 69
-0.88050401 1.4201076 -0.44822648 157
-0.86763382 1.39935 -0.38096046 132
-0.86372715 1.3930492 -0.31982687 86
-0.86382776 1.3932115 -0.26146382 101
-0.86817735 1.4002267 -0.20305939 130
-0.88715589 1.430836 -0.1475224 137
-0.87877119 1.4173129 -0.088801064 133
-0.86934203 1.4021052 -0.029075766 165
-61.088787 98.526123 30.996174 -1
-5.9410944 9.5820045 2.5987482 214
-62.074413 100.11578 22.882277 -1
-0.81718343 1.317982 0.24502023 115
-0.83688605 1.3497591 0.19435067 28
-0.82418054 1.3292671 0.13665709 11
-0.84194762 1.3579224 0.084680095 63
-0.8746146 1.410609 0.028837742 83
-0.87097448 1.4146421 -0.44563559 153
-0.86834127 1.4103652 -0.38321468 131
-0.8644923 1.4041137 -0.321742 85
-0.86980134 1.4127368 -0.26461399 121
-0.86377412 1.4029473 -0.20305939 129
-0.8826564 1.433616 -0.1475224 148
-0.87431425 1.4200666 -0.088801064 136
-0.86493295 1.4048294 -0.029075766 177
-60.778957 98.717552 30.996174 -1
-5.9007444 9.5840254 2.5942562 166
-61.759583 100.3103 22.882277 -1
-0.8182174 1.3289537 0.24658085 115
-0.80141747 1.3016672 0.18706252 1
-0.81477755 1.3233668 0.13578667 18
-0.83767742 1.3605609 0.084680095 67
-0.86493671 1.4048356 0.028664021 95
-0.87660187 1.4338524 -0.45081741 155
-0.86390615 1.4130862 -0.38321468 134
-0.86007684 1.4068227 -0.321742 86
-0.85505694 1.3986115 -0.26146382 106
-0.84900862 1.3887184 -0.20061289 132
-0.86775595 1.4193833 -0.14577657 137
-0.87505734 1.431326 -0.089332812 131
-0.8605153 1.4075397 -0.029075766 155
-60.468525 98.908012 30.996174 -1
-5.8655238 9.594202 2.59201 186
-61.444145 100.50382 22.882277 -1
-0.81403834 1.3315177 0.24658085 124
-62.129162 101.6243 14.576301 -1
-0.82100856 1.3429189 0.13752751 4
-0.84902519 1.3887455 0.086267844 71
-0.85530376 1.3990153 0.028490299 139
-0.86206889 1.4200866 -0.44563559 151
-0.85946256 1.4157933 -0.38321468 130
-0.85055977 1.4011277 -0.31982687 78
-0.85065883 1.4012909 -0.26146382 122
-0.8549422 1.4083468 -0.20305939 133
-0.86846197 1.4306179 -0.14664948 130
-0.87055635 1.4340681 -0.089332812 133
-0.84571224 1.3931423 -0.028723333 173
-60.157501 99.097488 30.996174 -1
-5.8252406 9.5959225 2.5875177 206
-61.128101 100.69636 22.882277 -1
-0.81497693 1.342512 0.2481415 128
-0.81897712 1.3491015 0.19313598 14
-0.82195514 1.3540072 0.13839795 14
-0.84465814 1.3914059 0.086267844 57
-0.83015066 1.3675077 0.027795414 135
-0.85760331 1.4227879 -0.44563559 148
-0.86003995 1.4268304 -0.38546887 135
-0.85122061 1.4121988 -0.321742 88
-0.85135031 1.412414 -0.2630389 107
-0.84538996 1.4025255 -0.20183614 133
-0.84853536 1.4077439 -0.14403075 132
-0.86089176 1.4282435 -0.088801064 135
-0.85165453 1.4129187 -0.029075766 159
-59.845879 99.285988 30.996174 -1
-5.7950654 9.6141758 2.5875177 225
-60.811451 100.8879 22.882277 -1
-0.81075525 1.3450657 0.2481415 131
-0.79936242 1.3261646 0.1894919 37
-0.80741185 1.3395189 0.13665709 15
-0.82997257 1.3769476 0.08520934 77
-0.82068884 1.3615458 0.027621692 54
-0.86304939 1.4420505 -0.45081741 156
-0.85555321 1.4295253 -0.38546887 131
-0.84173954 1.4064442 -0.31982687 83
-0.83676624 1.3981345 -0.25988874 99
-0.84097964 1.4051745 -0.20183614 126
-0.85434026 1.4274985 -0.14577657 136
-0.86152875 1.4395096 -0.089332812 135
-0.84721148 1.4155873 -0.029075766 157
-59.533669 99.473511 30.996174 -1
-5.7348075 9.5821657 2.5740411 223
-60.494202 101.07845 22.882277 -1
-0.80652565 1.3476061 0.2481415 130
-0.80028957 1.3371865 0.1907066 29
-0.80831558 1.3505969 0.13752751 35
-0.84102726 1.4052542 0.086797096 47
-0.81640738 1.3641173 0.027621692 76
-0.8582626 1.4449044 -0.45081741 151
-0.84583253 1.4239782 -0.38321468 132
-0.84208333 1.4176663 -0.321742 71
-0.84725481 1.4263725 -0.26461399 107
-0.84138381 1.4164886 -0.20305939 137
-0.84960175 1.4303237 -0.14577657 140
-0.85675043 1.4423586 -0.089332812 129
-0.84251261 1.418389 -0.029075766 171
-59.203476 99.670387 30.996174 -1
-5.6980243 9.5927525 2.571795 225
-5.7050486 9.604578 2.1700025 226
-0.80205238 1.3502733 0.2481415 130
-0.79585093 1.3398329 0.1907066 33
-0.80383241 1.3532699 0.13752751 35
-0.83126289 1.3994498 0.086267844 75
-0.81698549 1.3754134 0.027795414 42
-0.85862553 1.4559132 -0.4534083 158
-0.84630394 1.4350203 -0.38546887 137
-0.82765371 1.4033964 -0.31791171 113
-0.83775306 1.4205211 -0.2630389 67
-0.8318879 1.410576 -0.20183614 132
-0.85016459 1.4415666 -0.14664948 133
-0.84714216 1.4364417 -0.088801064 126
-0.84313154 1.429641 -0.029251983 175
-58.89006 99.855888 30.996174 -1
-5.6530094 9.5854254 2.5650566 227
-5.6648731 9.6055422 2.1661887 197
-0.80282408 1.3612944 0.24970214 132
-0.79668003 1.3508765 0.19192129 24
-0.79451638 1.3472077 0.13665709 38
-0.83193511 1.410656 0.086797096 61
-0.8228187 1.395198 0.028142856 75
-0.85404742 1.4586034 -0.4534083 155
-0.84179157 1.437672 -0.38546887 142
-0.83811861 1.4313991 -0.32365713 79
-0.83328623 1.423146 -0.2630389 98
-0.8324672 1.4217472 -0.20305939 127
-0.83556455 1.4270371 -0.14490366 141
-0.85271662 1.4563305 -0.089864552 130
-0.8487401 1.4495392 -0.029604416 173
-58.576061 100.04041 30.996174 -1
-5.6130204 9.586319 2.5605645 223
-5.6247487 9.606349 2.1623752 181
-0.79854345 1.3638098 0.24970214 147
-0.79744762 1.3619382 0.19313598 63
-0.805381 1.3754874 0.13926837 25
-0.83254498 1.4218801 0.087326348 93
-0.82853562 1.4150325 0.028490299 57
-0.84946084 1.4612793 -0.4534083 159
-0.8372708 1.4403094 -0.38546887 144
-0.82375228 1.4170543 -0.31982687 102
-0.83377415 1.4342943 -0.26461399 71
-0.83298451 1.432936 -0.20428263 129
-0.84109026 1.4468797 -0.14664948 131
-0.83810008 1.441736 -0.088801064 126
-0.83915716 1.4435544 -0.029428199 162
-58.26149 100.22393 30.996174 -1
-5.5779791 9.5954809 2.5583184 225
-5.5846748 9.6069984 2.1585615 183
-0.80418319 1.3833907 0.25282341 153
-0.79815352 1.3730181 0.19435067 36
-0.8060624 1.3866234 0.1401388 79
-0.83811122 1.4417551 0.088384844 141
-0.81403625 1.4003403 0.028142856 82
-0.84461039 1.4640882 -0.4534083 141
-0.83248997 1.443078 -0.38546887 136
-0.8288576 1.4367815 -0.32365713 68
-0.83394784 1.4456052 -0.26618907 78
-0.82326871 1.4270934 -0.20305939 128
-0.83130968 1.4410321 -0.14577657 129
-0.83331448 1.4445072 -0.088801064 127
-0.82437313 1.4290079 -0.029075766 148
-57.928814 100.41658 30.996174 -1
-5.5217824 9.571722 2.5470877 227
-5.5380702 9.5999565 2.1528409 197
-0.7946555 1.377494 0.25126278 155
-0.79855597 1.3842552 0.19556536 99
-0.80643779 1.3979179 0.14100923 34
-0.85328543 1.4791259 0.090501852 125
-0.81938052 1.4203534 0.028490299 115
-0.84480673 1.4751157 -0.4559992 151
-0.82795233 1.4456862 -0.38546887 127
-0.80970651 1.4138273 -0.31791171 126
-0.81958681 1.4310793 -0.2630389 52
-0.81878132 1.4296727 -0.20305939 126
-0.82677847 1.4436365 -0.14577657 126
-0.82877237 1.447118 -0.088801064 102
-0.81987971 1.4315907 -0.029075766 138
-57.61306 100.59808 30.996174 -1
-5.4868422 9.5805664 2.5448418 228
-5.493248 9.5917521 2.1471202 199
-0.80505061 1.4056976 0.2559447 141
-0.79913622 1.3953705 0.19678006 65
-0.82184565 1.4350234 0.14449093 54
-0.84863442 1.4817992 0.090501852 131
-0.82485229 1.4402733 0.028837742 117
-0.82610083 1.4524292 -0.44822648 146
-0.81402582 1.4311992 -0.38096046 115
-0.82006544 1.4418179 -0.32365713 70
-0.81045491 1.4249209 -0.26146382 111
-0.8096289 1.4234687 -0.20183614 123
-0.81756639 1.4374242 -0.14490366 80
-0.81460106 1.4322106 -0.087737583 53
-0.81068528 1.425326 -0.028899549 94
-57.314327 100.76857 30.996174 -1
-5.4391212 9.5629225 2.5358572 227
-5.4502048 9.5824099 2.1413996 158
-0.82040983 1.4424235 0.26218724 142
-0.82443672 1.4495034 0.2040682 69
-0.81265903 1.4287962 0.14362051 70
-0.84423411 1.4843106 0.090501852 141
-0.82551849 1.4514054 0.029011464 126
-0.81228727 1.4380546 -0.44304469 146
-0.81456733 1.442091 -0.38321468 94
-0.78682113 1.3929697 -0.31216633 93
-0.80136675 1.418721 -0.25988874 53
-0.7956394 1.4085815 -0.19938964 76
-0.78880095 1.3964748 -0.14053909 120
-0.77596962 1.3737586 -0.084015377 73
-0.80153531 1.4190195 -0.028723333 22
-5.3546672 9.4797773 2.9110575 194
-5.3963461 9.553565 2.5291188 1
-5.3638144 9.4959717 2.1185174 1
-0.81126863 1.436251 0.26062661 158
-0.81525064 1.4433007 0.20285352 58
-0.80841613 1.4312011 0.14362051 59
-0.84473765 1.4955038 0.091031097 228
-0.82120848 1.4538484 0.029011464 131
-0.79806948 1.4238895 -0.43786287 131
-0.79072708 1.4107894 -0.37419787 128
-0.79179502 1.4126948 -0.31599659 50
-0.78217298 1.3955275 -0.25516349 47
-0.76670128 1.3679234 -0.1932734 54
-0.78416574 1.3990829 -0.14053909 31
-0.78117448 1.393746 -0.085078865 39
-0.78215975 1.3955039 -0.028194683 97
-5.2995849 9.4553461 2.8981423 1
-5.3265209 9.5034046 2.5111501 1
-5.3370948 9.5222702 2.1204243 9
-0.81616008 1.4561661 0.26374787 54
-0.81045997 1.4459962 0.20285352 129
-0.80853635 1.4425641 0.14449093 96
-58.588863 104.53234 6.351007 -1
-0.81638283 1.4565636 0.029011464 150
-0.79359227 1.4263897 -0.43786287 128
-0.786291 1.4132665 -0.37419787 126
-0.76826566 1.3808681 -0.30833608 77
-0.76338154 1.3720894 -0.25043824 103
-0.76240009 1.3703253 -0.1932734 29
-0.76039344 1.3667186 -0.13704744 52
-0.75251734 1.3525622 -0.082420148 77
-0.77291071 1.389217 -0.028018465 21
-5.2604604 9.4550648 2.8929763 32
-5.3061142 9.5371218 2.5156422 62
-5.3166986 9.5561466 2.124238 15
-0.82598811 1.4846175 0.26842979 24
-57.909935 104.08636 14.576301 -1
-0.79431367 1.4276863 0.14275008 225
-58.260178 104.71588 6.351007 -1
-0.81180286 1.4591211 0.029011464 156
-0.79352564 1.4374691 -0.44045377 106
-0.78160018 1.4158663 -0.37419787 89
-0.7684257 1.3920008 -0.31025121 35
-0.76359981 1.3832587 -0.25201333 32
-0.74346215 1.3467793 -0.18960364 35
-0.74622828 1.3517902 -0.1353016 17
-0.76250589 1.381277 -0.084015377 39
-0.76346761 1.3830192 -0.027842248 122
-56.025826 101.49061 30.996174 -1
-56.512058 102.37141 26.95331 -1
-56.929764 103.12809 22.882277 -1
-57.283287 103.76849 18.727659 -1
-5.3247118 9.6456985 1.3483077 227
-5.1466804 9.3231955 0.9304868 106
-57.912605 104.90851 6.351007 -1
-0.8117919 1.4705584 0.029185185 181
-0.78436452 1.4314847 -0.43786287 60
-0.76778501 1.4012265 -0.36968946 134
-0.74989974 1.3685856 -0.30450583 77
-0.74026918 1.3510095 -0.24571298 77
-0.74399662 1.3578123 -0.19082689 27
-0.74676478 1.3628643 -0.13617453 20
-0.7437672 1.3573935 -0.082420148 86
-0.74950987 1.367874 -0.027489815 19
-8.8480825 16.147968 4.9232259 225
-56.19017 102.54845 26.95331 -1
-56.605499 103.30643 22.882277 -1
-56.957005 103.94794 18.727659 -1
-5.2896132 9.6536741 1.3470931 191
-5.1030045 9.3131084 0.92787552 1
-57.582741 105.08993 6.351007 -1
-0.79755884 1.4555646 0.028837742 225
-0.75679064 1.3915174 -0.42490834 79
-0.75872439 1.3950729 -0.36743525 36
-0.74559653 1.3709347 -0.30450583 25
-0.75017548 1.379354 -0.25043824 27
-0.73024362 1.3427051 -0.18838039 31
-0.73296058 1.347701 -0.13442869 42
-0.74427015 1.3684958 -0.082951896 30
-0.73565489 1.3526549 -0.027137382 144
-8.7926931 16.1672 4.9206429 227
-5.1863875 9.5362549 2.5021656 199
-8.7938547 16.169336 3.5753558 135
-5.2335711 9.6230116 1.7307479 161
-5.2545166 9.6615248 1.3458784 166
-5.0594425 9.3028402 0.92526424 133
-57.252308 105.27031 6.351007 -1
-57.324009 105.40215 2.084656 -1
-0.76159114 1.4108868 -0.43009016 60
-0.7450822 1.3803031 -0.36292684 133
-0.73662376 1.3646334 -0.30259067 65
-0.72707516 1.3469441 -0.2441379 39
-0.71659291 1.3275253 -0.18593389 32
-0.72872305 1.3499969 -0.13442869 43
-56.920555 105.44826 -6.3809147 -1
-0.7314018 1.3549594 -0.027137382 10
-8.718914 16.152237 4.9077277 227
-5.1564026 9.5525007 2.5021656 129
-5.1758647 9.5885553 2.1166105 194
-5.1939297 9.6220217 1.7276267 226
-5.2052789 9.6430464 1.3410196 157
-5.0254598 9.3099222 0.92439383 139
-56.92131 105.44965 6.351007 -1
-0.81214452 1.5045394 0.029706348 228
-0.74803263 1.396245 -0.42490834 85
-0.74534309 1.3912249 -0.36518106 27
-0.72306299 1.3496377 -0.29876041 25
-0.72284001 1.3492216 -0.2441379 21
-0.71710581 1.3385184 -0.18715714 27
-0.71977389 1.3434986 -0.13355578 35
-0.72150975 1.3467386 -0.081356667 29
-0.71769804 1.3396238 -0.026784947 149
-8.6498785 16.145485 4.8973956 227
-5.1217656 9.5600634 2.4999194 115
-5.1410799 9.5961151 2.1147037 191
-5.1543465 9.6208782 1.7245054 226
-5.1655836 9.6418524 1.3385903 161
-4.9867778 9.3081017 0.92265296 126
-56.589748 105.62795 6.351007 -1
-0.78380525 1.4630166 0.028837742 227
-0.74817687 1.4071161 -0.42749926 42
-0.71809936 1.3505484 -0.35391003 179
-0.71881938 1.3519027 -0.29876041 43
-0.71859777 1.3514858 -0.2441379 77
-0.71289718 1.3407646 -0.18715714 29
-0.70619607 1.3281616 -0.13180995 30
-0.70321107 1.3225477 -0.079761438 89
-0.72756791 1.3683562 -0.027313598 20
-54.42477 102.35811 30.996174 -1
-5.0825567 9.5588989 2.4954271 97
-5.0970817 9.5862169 2.108983 177
-5.1148219 9.6195812 1.721384 226
-5.1306076 9.6492691 1.3373755 154
-4.9528341 9.3149261 0.92178255 118
-56.257629 105.80521 6.351007 -1
-0.79328722 1.4919562 0.029358907 210
0.1 0.1 0.1 -1
-0.72749341 1.3786473 -0.36067262 14
-0.70540762 1.3367933 -0.29493016 29
-0.70973969 1.3450029 -0.24256282 20
-0.69941771 1.3254421 -0.18471064 43
-0.70666915 1.339184 -0.13268287 67
-0.7176941 1.360077 -0.081888407 34
-0.75592911 1.4325349 -0.028547116 79
-8.5257206 16.156796 4.8844805 225
-5.0388584 9.5489645 2.4886889 101
-5.0577779 9.5848188 2.1051693 175
-5.0707464 9.6093941 1.7167022 223
-5.0910034 9.6477823 1.3349462 127
-4.9142475 9.3128185 0.92004168 115
-55.924957 105.98143 6.351007 -1
-0.78859621 1.494441 0.029358907 186
-0.73484027 1.4032329 -0.42490834 74
-0.70959949 1.3550336 -0.35391003 207
-0.69665122 1.330308 -0.29301503 38
0.1 0.1 0.1 -1
-0.70906323 1.3540096 -0.18838039 73
-0.72556573 1.3855225 -0.13704744 45
-0.70878518 1.3534787 -0.081356667 61
-0.76534027 1.4614749 -0.029075766 61
-8.4525118 16.140709 4.8715653 228
-4.9952731 9.5388508 2.4819505 124
-5.0185337 9.5832682 2.1013558 188
-5.0313683 9.6077766 1.7135808 203
-5.0468545 9.6373491 1.331302 158
-4.8803449 9.3193865 0.91917127 115
-2.0985878 4.007412 0.23975052 128
-0.77462047 1.4791962 0.029011464 191
-0.71706676 1.3798236 -0.41713563 136
-0.71432424 1.3745462 -0.35841843 34
-0.69246846 1.33249 -0.29301503 33
-0.72859722 1.4020112 -0.25201333 16
-0.70480597 1.3562306 -0.18838039 78
-0.73039675 1.4054739 -0.13879326 54
-0.72755343 1.4000026 -0.084015377 37
-0.75613457 1.4550002 -0.028899549 98
-53.457664 102.86649 30.996174 -1
-4.9562945 9.5372028 2.4774585 133
-4.974822 9.572855 2.0956352 186
-4.9920502 9.6060066 1.7104596 203
-5.0119758 9.6443491 1.3300874 151
-4.8372617 9.3081532 0.91655993 111
-2.0721734 3.9874022 0.23816276 1
-0.77919084 1.4993664 0.029358907 194
-0.73486286 1.4249909 -0.43009016 126
0.1 0.1 0.1 -1
-0.7017746 1.3608286 -0.29876041 71
-0.70608437 1.3691859 -0.24571298 127
-0.70963973 1.3760802 -0.19082689 89
-0.73510957 1.4254693 -0.14053909 65
-0.72772855 1.4111567 -0.084547125 39
-0.74697715 1.448482 -0.028723333 39
-8.3243637 16.141981 4.8560672 227
-4.9173756 9.5354052 2.4729662 130
-4.9267263 9.5535383 2.0880077 191
-4.9618473 9.6216421 1.7104596 226
-4.9725537 9.6424026 1.3276581 175
-4.8034296 9.3144503 0.91568953 129
-2.0733674 4.0205183 0.23975052 16
-0.77447659 1.501807 0.029358907 84
-0.7347824 1.4358907 -0.43268105 133
-0.74117923 1.4483912 -0.37645206 1
-0.71090937 1.3892387 -0.30450583 72
-0.70627809 1.3801883 -0.24728806 30
-0.71887684 1.4048085 -0.19449663 125
-0.74424183 1.4543761 -0.14315784 37
-0.7232917 1.4134358 -0.084547125 25
-0.74697763 1.4597223 -0.028899549 61
-8.2560081 16.133654 4.8457351 225
-4.8785167 9.5334578 2.4684739 126
-4.8653855 9.5077972 2.0746598 71
-8.3333168 16.284729 2.8903022 228
-4.9286714 9.6314688 1.3240139 142
-4.7650671 9.311758 0.91394866 132
-2.0652752 4.035902 0.24027976 9
-0.76519996 1.4953318 0.029185185 65
-0.73901349 1.4554158 -0.43786287 115
0.1 0.1 0.1 -1
-0.72431606 1.4264706 -0.31216633 58
-0.71535146 1.4088156 -0.25201333 155
-0.72794038 1.4336083 -0.19816639 131
-0.71711826 1.4122952 -0.13879326 171
-0.71884769 1.4157012 -0.084547125 37
-0.7514416 1.4798918 -0.029251983 25
-8.1921606 16.133669 4.8379865 225
-4.8397188 9.5313597 2.4639816 120
-4.8221588 9.4967766 2.0689392 53
-4.8744631 9.5997858 1.7010958 144
-4.8849072 9.6203537 1.3203698 149
-4.7267694 9.308917 0.91220784 129
-2.057107 4.0512738 0.24080901 9
-0.75597167 1.4888133 0.029011464 33
-0.7387833 1.4663559 -0.44045377 125
-0.72329694 1.4356182 -0.37194365 93
-0.72424722 1.4375044 -0.31408146 30
-0.71980852 1.4286942 -0.25516349 47
-0.7278986 1.4447516 -0.19938964 147
-0.71267784 1.4145411 -0.13879326 64
-0.7143966 1.4179525 -0.084547125 26
-0.74228996 1.4733161 -0.029075766 49
-8.1283941 16.133444 4.8302374 226
-4.805367 9.5378141 2.4617357 129
-8.1579523 16.192112 3.5219636 126
-4.8442807 9.6150513 1.7010958 147
-4.850194 9.6267881 1.3191552 136
-4.6885366 9.3059273 0.91046697 129
-2.0578489 4.0844707 0.24239677 10
-0.76028824 1.5090394 0.029358907 43
-0.73849165 1.4773089 -0.44304469 144
0.1 0.1 0.1 -1
0.1 0.1 0.1 -1
-0.71973211 1.4397815 -0.25673857 57
-0.72779399 1.4559088 -0.20061289 140
-0.71268469 1.4256836 -0.13966618 163
-0.70993841 1.4201899 -0.084547125 31
-0.73318714 1.4666975 -0.028899549 30
-8.0647106 16.132977 4.8224883 227
-4.7623081 9.5267153 2.4549973 126
-4.7931194 9.5883512 2.0822871 172
-4.7963839 9.594883 1.6948532 205
-4.8154883 9.6330996 1.3179405 149
-4.6592779 9.32061 0.91046697 137
-2.0539372 4.1087799 0.24345526 6
-0.737661 1.4756472 0.028664021 43
-0.75101292 1.5142326 -0.4534083 154
-0.74456447 1.501231 -0.38772309 130
-0.72392285 1.4596123 -0.31791171 29
-0.73714417 1.4862698 -0.26461399 34
-0.71880662 1.4492966 -0.19938964 136
-0.703776 1.4189911 -0.13879326 129
-0.70547324 1.4224132 -0.084547125 31
-0.72857577 1.4689937 -0.028899549 40
-7.9925256 16.11496 4.8095732 225
-4.7280259 9.5328999 2.4527512 132
-4.7586112 9.5945683 2.0803802 210
-8.084136 16.299671 2.8746958 228
-4.7763805 9.6303959 1.3155111 150
-4.6166945 9.3084278 0.90785569 145
-2.0498929 4.1331043 0.24451376 7
-53.310654 107.48781 2.084656 -1
-0.75051641 1.5252508 -0.4559992 171
-0.73984456 1.5035627 -0.38772309 120
0.1 0.1 0.1 -1
-0.7150315 1.453136 -0.25831366 18
-0.71863192 1.4604529 -0.20061289 137
-0.69491649 1.4122567 -0.13792035 140
-0.70100117 1.4246224 -0.084547125 28
-0.72837156 1.4802464 -0.029075766 30
-7.9333291 16.122654 4.8044071 225
-4.6937518 9.5389633 2.450505 135
-4.7024412 9.5566225 2.0689392 199
-4.7272816 9.6071043 1.6917319 226
-4.7373376 9.6275415 1.3130817 148
-4.5918269 9.3318243 0.9087261 135
-2.0413072 4.1484838 0.24504302 7
-52.972706 107.65475 2.084656 -1
-0.74545437 1.5277312 -0.4559992 166
-0.74767172 1.5322754 -0.39448568 61
-0.71017796 1.4554359 -0.31599659 33
-0.71020883 1.4554991 -0.25831366 41
-0.7224896 1.4806674 -0.20305939 89
-0.69459796 1.4235063 -0.13879326 144
-0.69189399 1.4179648 -0.084015377 32
-0.71907425 1.4736679 -0.028899549 26
-7.862875 16.114143 4.794075 228
-4.6535473 9.5369606 2.4460127 135
-4.6621151 9.5545197 2.0651255 171
-4.6910653 9.6138506 1.6901714 214
-4.692327 9.616436 1.3094376 151
-4.5695934 9.3649063 0.91046697 134
-2.027539 4.1552305 0.24504302 7
-0.74100047 1.5186034 0.029358907 29
-0.73644292 1.521372 -0.4534083 166
-0.71738499 1.4820013 -0.38096046 136
0.1 0.1 0.1 -1
-0.70993537 1.4666116 -0.25988874 59
-0.70918578 1.4650631 -0.20061289 1
-0.70314366 1.452581 -0.141412 80
-0.68743593 1.4201314 -0.084015377 50
-0.71008474 1.4669201 -0.028723333 13
-7.7995849 16.11268 4.7863259 228
-4.6150718 9.5339918 2.4415207 143
-4.6363525 9.5779543 2.0670323 175
-4.6393213 9.5840874 1.6823682 203
-4.6620932 9.6311302 1.3094376 145
-4.5748739 9.4509497 0.9174304 130
-2.0231769 4.1795559 0.24610151 7
-0.73186964 1.5119243 0.029185185 25
-0.73584068 1.5323848 -0.4559992 165
-0.70850831 1.4754652 -0.37870628 129
-0.71801364 1.49526 -0.32365713 36
-0.72242314 1.5044428 -0.26618907 1
-0.70028347 1.4583371 -0.19938964 35
-0.70288897 1.463763 -0.14228491 14
-0.6916163 1.4402876 -0.085078865 26
-0.69681662 1.4511174 -0.028370898 75
-7.7363815 16.110977 4.7785769 226
-4.5850968 9.5484428 2.4415207 136
-4.5892425 9.5570765 2.0594049 177
-4.6006379 9.5808067 1.6792469 225
-4.631813 9.6457291 1.3094376 149
-4.5537848 9.4832363 0.91917127 133
-2.0186818 4.2038951 0.24716002 9
-0.73144424 1.5232292 0.029358907 22
-0.72271585 1.5172493 -0.45081741 170
-0.69967979 1.468888 -0.37645206 125
-0.70909178 1.4886473 -0.321742 71
0.1 0.1 0.1 -1
-0.6956985 1.4605298 -0.19938964 20
-0.69828695 1.465964 -0.14228491 41
-0.6827938 1.4334379 -0.084547125 21
-0.69655412 1.462326 -0.028547116 16
-7.6732659 16.109037 4.7708278 227
-4.5425057 9.5364084 2.4347823 150
-4.5507526 9.5537214 2.0555911 168
-4.5790114 9.6130476 1.6823682 228
-4.5801444 9.6154261 1.3033642 153
-4.5411062 9.5334711 0.92265296 121
-2.0054648 4.2102165 0.24716002 7
-0.730955 1.5345464 0.029532628 24
-0.72619796 1.536978 -0.4559992 171
-0.69506168 1.4710789 -0.37645206 120
-0.70441163 1.4908676 -0.321742 29
-0.70451891 1.4910948 -0.2630389 31
-0.69110668 1.4627082 -0.19938964 34
-0.70218945 1.4861646 -0.14403075 10
-0.67828715 1.435576 -0.084547125 30
-0.68768531 1.455467 -0.028370898 53
-7.6143661 16.115595 4.7656617 227
-4.5125237 9.5506315 2.4347823 159
-4.5207162 9.5679712 2.0555911 181
-4.53613 9.6005936 1.6776862 227
-4.5456738 9.6207933 1.3021495 156
-4.5026221 9.5296755 0.92091209 1
-1.9964943 4.2255249 0.24768928 8
-0.72185916 1.527795 0.029358907 21
-0.70906985 1.5130146 -0.44822648 161
-0.68630242 1.4644333 -0.37419787 120
-0.69139439 1.4752986 -0.31791171 49
-0.69144982 1.4754169 -0.25988874 38
-0.68229634 1.4558852 -0.19816639 54
-0.68060756 1.4522817 -0.14053909 30
-0.66953623 1.4286577 -0.084015377 43
-0.69159526 1.4757273 -0.028723333 25
-7.5473013 16.104446 4.7553296 223
-4.4700918 9.53829 2.4280441 203
-4.4823041 9.5643482 2.0517774 177
-4.4975634 9.5969086 1.674565 226
-4.5027905 9.6080627 1.2985054 150
-4.502254 9.6069174 0.92700511 131
-1.9916848 4.2498608 0.24874777 7
-0.71705592 1.5300552 0.029358907 19
-0.7043131 1.5152347 -0.44822648 137
-0.67759174 1.4577473 -0.37194365 130
-0.68675619 1.4774634 -0.31791171 25
-0.69097376 1.4865369 -0.26146382 41
-0.68190265 1.4670217 -0.19938964 47
-0.68024075 1.4634464 -0.141412 43
-0.66925383 1.4398094 -0.084547125 34
-0.68274128 1.4688258 -0.028547116 36
-7.4803824 16.093035 4.7449975 225
-4.444212 9.5611229 2.43029 206
-4.4315457 9.5338736 2.0422432 123
-4.4549012 9.5841198 1.669883 140
-4.4307446 9.5321503 1.2863585 1
-4.4594536 9.5939131 0.92439383 96
-1.9783237 4.2560968 0.24874777 7
-0.72067451 1.5504341 0.029706348 19
-0.70359302 1.5262111 -0.45081741 129
-0.68116647 1.4775642 -0.37645206 133
-0.6821112 1.4796137 -0.31791171 52
-0.69043458 1.4976684 -0.2630389 14
-0.6772905 1.4691566 -0.19938964 25
-0.66729861 1.4474826 -0.13966618 43
-0.66472721 1.4419048 -0.084547125 33
-0.68230939 1.4800435 -0.028723333 29
-4.3559508 9.4487877 2.7819066 131
-4.357038 9.4511461 2.3988445 1
-4.3440356 9.4229412 2.0155473 1
-4.3710108 9.4814558 1.6495948 1
-4.3924656 9.5279942 1.2839291 1
-4.4251208 9.5988283 0.92352337 29
-1.9733045 4.2804284 0.24980627 7
-1.9590319 4.2494688 0.081301585 1
-0.6907627 1.510846 -0.44563559 134
-0.68057221 1.4885573 -0.37870628 136
-0.66929734 1.4638969 -0.31408146 26
-0.68162 1.490849 -0.26146382 89
-0.68092531 1.4893297 -0.20183614 40
-0.67103231 1.4676915 -0.141412 17
-0.6601941 1.4439861 -0.084547125 44
-0.67349893 1.4730866 -0.028547116 35
-4.3061604 9.4184961 2.7689915 1
-4.3313766 9.47365 2.4010906 1
-4.3429832 9.4990358 2.0288951 1
-4.3576307 9.5310736 1.6558373 1
-4.3831472 9.5868826 1.2900026 11
-4.3742318 9.5673828 0.91917127 4
-1.9639996 4.2956882 0.25033551 8
-1.9373573 4.2374158 0.080954142 1
-0.68202436 1.5042121 -0.44304469 138
-0.67589241 1.4906881 -0.37870628 135
-0.67280114 1.4838701 -0.31791171 41
-0.67693299 1.4929831 -0.26146382 13
-0.67214465 1.4824224 -0.20061289 21
-0.67053181 1.4788651 -0.14228491 84
-0.66390163 1.4642422 -0.085610606 67
-0.67299664 1.4843013 -0.028723333 38
-4.2685714 9.414381 2.7638257 30
-4.3096409 9.5049601 2.4055829 87
-48.644207 107.28533 22.882277 -1
-48.946278 107.95155 18.727659 -1
-49.186523 108.48141 14.576301 -1
-4.3030157 9.4903479 0.91046697 6
-1.958742 4.3200269 0.25139403 6
-1.9446797 4.2890124 0.081822753 8
-0.68495095 1.524085 -0.44822648 143
-0.67893285 1.5106941 -0.38321468 168
-0.66787672 1.4860932 -0.31791171 34
-0.67197835 1.4952196 -0.26146382 77
-0.66315663 1.4755905 -0.19938964 37
-0.68195832 1.5174261 -0.14577657 24
-0.65904236 1.4664358 -0.085610606 75
-0.66807079 1.4865249 -0.028723333 42
-47.521442 105.74001 30.996174 -1
-47.933868 106.65769 26.95331 -1
-48.28817 107.44605 22.882277 -1
-48.588028 108.11327 18.727659 -1
-48.826515 108.64393 14.576301 -1
-4.3001065 9.5681715 0.91655993 33
-1.9525925 4.3447151 0.25245252 6
-1.9386433 4.3136773 0.082170196 6
-0.67622799 1.5174072 -0.44563559 144
-0.68211508 1.5306175 -0.38772309 127
-0.66320473 1.488184 -0.31791171 42
-0.6632579 1.4883033 -0.25988874 17
-0.65851766 1.4776665 -0.19938964 29
-0.68935287 1.5468585 -0.14839531 37
-0.67475617 1.5141046 -0.088269323 52
-0.67153728 1.5068816 -0.029075766 81
-7.1687984 16.086271 4.7088356 186
-47.598557 106.80775 26.95331 -1
-4.2476044 9.5313206 2.0269883 132
-7.2372212 16.239807 2.809149 136
-4.2666764 9.5741167 1.2827145 129
-4.23353 9.4997387 0.9087261 51
-1.9470632 4.3690705 0.25351104 7
-1.9291519 4.3288789 0.082343914 7
-0.66781741 1.5105731 -0.44304469 179
-0.68544942 1.5504559 -0.39223149 71
-0.6548177 1.4811684 -0.31599659 26
-0.66283208 1.4992965 -0.26146382 90
-0.65814352 1.4886912 -0.20061289 25
-0.68476027 1.5488971 -0.14839531 34
-0.66218531 1.4978337 -0.087205835 29
-0.65897775 1.4905782 -0.028723333 56
-7.1132255 16.089798 4.7036695 225
-7.1276774 16.122488 4.0632114 135
-4.219306 9.5438814 2.0269883 150
-4.2375188 9.5850792 1.6558373 161
-4.2462778 9.6048908 1.2851439 106
-4.2335219 9.5760374 0.91481912 128
-1.9462047 4.4022279 0.25509879 8
-1.9203422 4.3437285 0.082517631 7
-0.66721165 1.5213933 -0.44563559 170
-0.66910738 1.5257159 -0.38546887 107
-0.65042013 1.4831048 -0.31599659 51
-0.64648223 1.4741255 -0.25673857 15
-0.64973748 1.4815482 -0.19938964 31
-0.6801616 1.550922 -0.14839531 17
-0.64169586 1.4632115 -0.085078865 45
-0.65856785 1.5016835 -0.028899549 37
-7.0576949 16.093138 4.6985035 225
-4.1797881 9.5308609 2.3988445 183
-4.1909699 9.5563583 2.0269883 161
-4.2050939 9.5885639 1.6542766 171
-4.2097878 9.599267 1.2827145 97
-4.1970887 9.5703096 0.91307825 53
-1.9371451 4.4171286 0.25562802 8
-1.9194927 4.3768768 0.083038799 7
-0.6583131 1.5147394 -0.44304469 158
-0.64851105 1.4921854 -0.37645206 141
-0.64549839 1.4852535 -0.31599659 36
-0.64552641 1.4853181 -0.25831366 69
-0.64877683 1.492797 -0.20061289 30
-0.66310275 1.5257601 -0.14577657 16
-0.64082038 1.4744898 -0.085610606 44
-0.65358448 1.503859 -0.028899549 55
-6.9927373 16.089874 4.6907544 227
-4.1326237 9.5089216 2.3898602 82
-4.1475186 9.5431948 2.0212677 153
-4.1614628 9.5752792 1.6495948 188
-4.1779323 9.6131744 1.2827145 104
-4.1693001 9.5933123 0.91394866 143
-1.9304473 4.4418449 0.25668654 9
-1.9089532 4.3923883 0.083212517 6
-0.65737307 1.5256702 -0.44563559 146
-0.65153044 1.5121102 -0.38096046 130
-0.64082915 1.4872741 -0.31599659 103
-0.64085698 1.4873387 -0.25831366 30
-0.64015657 1.4857131 -0.19938964 42
-0.64253837 1.4912409 -0.14228491 41
-0.6480394 1.5040081 -0.087205835 21
-0.6528132 1.5150874 -0.029075766 72
-6.9383326 16.10289 4.6881714 223
-4.0873065 9.4860611 2.3808756 72
-4.1136332 9.5471621 2.0193608 158
-4.1274519 9.5792341 1.6480341 199
-4.1359277 9.5989056 1.2790704 122
-47.30447 109.787 10.445127 -1
-1.9204348 4.4570584 0.25721577 8
-1.9030577 4.4167285 0.08355996 7
-0.65610266 1.5367246 -0.44822648 143
-0.65033799 1.5232226 -0.38321468 83
-0.65130925 1.5254974 -0.32365713 72
-0.63979882 1.4985377 -0.25988874 119
-0.63912332 1.4969555 -0.20061289 42
-0.64150131 1.5025252 -0.14315784 42
-0.65481144 1.5337002 -0.088801064 51
-0.66348928 1.5540254 -0.029780634 11
-6.8735151 16.099155 4.6804223 210
-4.0443482 9.4726772 2.3741374 95
-4.0780964 9.5517225 2.0174539 154
-4.091785 9.5837841 1.6464734 191
-4.1001763 9.6034384 1.2778556 100
-4.0994391 9.6017122 0.91220784 132
-1.9174074 4.4909544 0.25880355 8
-1.8962528 4.4414058 0.083907403 8
-0.64750707 1.5298835 -0.44563559 146
-0.63795477 1.507314 -0.37870628 177
-0.64268804 1.5184973 -0.321742 90
-0.62738985 1.4823519 -0.25673857 67
-0.63828576 1.508096 -0.20183614 50
-0.64066058 1.513707 -0.14403075 21
-0.64220566 1.5173576 -0.087737583 42
-0.65860391 1.5561022 -0.029780634 42
-6.800312 16.067291 4.6649241 227
-4.0069728 9.4673891 2.3696451 109
-4.0365901 9.5373669 2.0117335 156
-4.0539565 9.5783987 1.6433522 165
-4.0622487 9.597991 1.2754263 78
-4.0614886 9.5961952 0.91046697 95
-1.9071814 4.5061522 0.25933278 8
-1.8861874 4.4565487 0.084081128 7
-0.64269763 1.5319102 -0.44563559 152
-0.64075458 1.5272787 -0.38321468 62
-0.65310282 1.5567116 -0.32940251 112
-0.63037068 1.5025281 -0.25988874 125
-0.62970513 1.5009416 -0.20061289 87
-0.63975596 1.5248984 -0.14490366 71
-0.63357234 1.5101594 -0.087205835 49
-46.417419 110.63883 -2.1146011 -1
-6.7460642 16.079666 4.6623411 225
-3.9734404 9.4709444 2.367399 113
-4.006608 9.5500011 2.0117335 159
-4.0200238 9.5819798 1.6417916 155
-4.0205555 9.5832462 1.2717822 71
-4.0236135 9.5905342 0.9087261 68
-1.9046054 4.5397468 0.26092052 7
-1.8760456 4.4716725 0.084254846 8
-0.64159048 1.5428398 -0.44822648 149
-0.6322124 1.5202883 -0.38096046 206
-0.64444035 1.5496931 -0.32748738 113
-0.62185544 1.4953828 -0.25831366 131
-0.64023024 1.5395689 -0.20550588 141
-0.63113713 1.5177026 -0.14403075 127
-0.64416206 1.5490239 -0.089332812 94
-1.8159105 4.3667402 -0.083350532 25
-6.6806774 16.0651 4.652009 210
-3.9399254 9.4743834 2.3651528 122
-3.9728167 9.5534773 2.0098267 158
-3.9747307 9.5580797 1.6355489 177
-3.9828064 9.5774994 1.2693528 64
-3.9896388 9.5939293 0.90785569 84
-1.9018371 4.573369 0.26250827 7
-1.8735057 4.5052404 0.084776014 7
-0.63305974 1.5359181 -0.44563559 158
-0.62000793 1.504252 -0.37645206 96
-0.64330888 1.5607843 -0.32940251 126
-0.62468076 1.5155892 -0.26146382 149
-0.65051877 1.5782768 -0.21039888 137
-0.62636602 1.5196779 -0.14403075 139
-0.65070844 1.578737 -0.090928033 63
-1.8059931 4.3816676 -0.083526745 77
-6.6191306 16.059214 4.6442599 219
-3.9027147 9.4686956 2.3606608 98
-3.9315617 9.5386839 2.004106 158
-3.9522116 9.5887842 1.6386702 219
-3.9489157 9.5807877 1.2681382 101
-3.9556828 9.5972052 0.90698528 60
-1.8950708 4.5977864 0.26356679 7
-1.863153 4.5203481 0.084949732 7
-0.63553643 1.5557818 -0.45081741 183
-0.62264776 1.5242306 -0.38096046 148
-0.63840234 1.5627977 -0.32940251 127
-0.63858855 1.5632534 -0.26933923 103
-0.64180404 1.5711248 -0.20917563 132
-0.62158871 1.5216382 -0.14403075 138
-0.64574552 1.5807735 -0.090928033 94
-1.8035619 4.4150877 -0.084055394 48
-6.5613399 16.062042 4.6390939 219
-3.8729486 9.4809093 2.3606608 130
-3.8978634 9.5419006 2.0021992 165
-3.9145975 9.5828648 1.6355489 223
-3.9187973 9.5931463 1.2681382 89
-3.917978 9.5911407 0.90524441 96
-1.8843935 4.6129618 0.26409605 7
-1.8565048 4.5446906 0.085297175 7
-0.63789445 1.5756762 -0.4559992 206
-0.61785614 1.5261792 -0.38096046 129
-0.64085567 1.5829908 -0.33323279 136
-0.62996858 1.5560983 -0.26776415 121
-0.63686502 1.5731333 -0.20917563 115
-0.63175815 1.5605187 -0.1475224 146
-44.966747 111.07329 -6.3809147 -1
-1.8046905 4.4578032 -0.084760264 83
-6.5035968 16.064667 4.6339283 203
-3.8358312 9.4749651 2.3561685 132
-3.8568163 9.5268011 1.9964786 155
-3.8733532 9.5676489 1.6308671 199
-3.8811908 9.5870085 1.2657088 99
-3.8878274 9.6034021 0.90524441 150
-1.8886285 4.6651402 0.26674229 8
-1.849722 4.5690365 0.085644618 7
-0.63653743 1.5866364 -0.45859012 219
-0.60943091 1.5190706 -0.37870628 138
-0.63222498 1.5758871 -0.33131763 137
-0.63610762 1.5855651 -0.2724894 64
-0.6393106 1.5935489 -0.21162213 78
-0.64539844 1.6087235 -0.15188697 123
-1.7958577 4.4763637 -0.25683182 1
-1.7906771 4.4634504 -0.084760264 54
-6.4494991 16.076054 4.6313453 203
-3.7987893 9.4688816 2.3516762 125
-3.8268681 9.5388708 1.9964786 156
-3.8359208 9.5614357 1.6277457 206
-3.8473573 9.589942 1.2644941 92
-3.8502197 9.5970774 0.90350354 126
-1.8813996 4.6895862 0.26780081 8
-1.8390818 4.5841045 0.085818343 7
0.1 0.1 0.1 -1
-0.61545306 1.548138 -0.38546887 125
-0.63452274 1.5961068 -0.33514792 125
-0.60558653 1.5233192 -0.26146382 191
-0.61963528 1.5586581 -0.20672913 90
-0.64402145 1.6200002 -0.15275988 62
-1.7817858 4.4819837 -0.25683182 5
-1.7840332 4.4876366 -0.085112698 7
-6.3918252 16.078281 4.6261792 203
-3.7654235 9.471714 2.3494301 115
-3.789629 9.5326023 1.9926649 159
-3.8022149 9.5642605 1.6261852 199
-3.8098769 9.5835342 1.2620647 100
-3.8163705 9.5998678 0.90263313 142
-1.8887918 4.7511511 0.27097631 6
-1.8320587 4.6084418 0.086165786 7
-0.97700226 2.4802647 -0.71508968 1
-0.6105864 1.5500638 -0.38546887 136
-0.62590814 1.5889603 -0.33323279 107
-0.6080364 1.5435903 -0.26461399 1
-0.62928551 1.5975343 -0.21162213 72
-43.812267 111.22392 -10.474963 -1
-1.7750162 4.5061412 -0.25789532 4
-1.7772549 4.5118246 -0.085465133 4
-6.3306603 16.071318 4.6184301 199
-3.7285058 9.4653635 2.344938 125
-3.7524674 9.5261936 1.9888512 155
-3.7685292 9.566968 1.6246245 199
-3.7761128 9.5862207 1.26085 103
-3.7898438 9.6210794 0.90350354 150
-1.8811761 4.7756438 0.27203479 7
-1.8212363 4.6234775 0.086339504 5
-0.9516474 2.4383342 -0.70213515 37
-0.60571373 1.5519744 -0.38546887 62
-0.62448162 1.600062 -0.33514792 81
0.1 0.1 0.1 -1
0.1 0.1 0.1 -1
-1.7892116 4.5843616 -0.43121934 62
-1.7644817 4.5209975 -0.25842705 5
-1.7667071 4.5267 -0.085641347 4
-6.2731147 16.073128 4.6132641 191
-3.6916654 9.4588747 2.3404458 117
-3.7153833 9.5196457 1.9850374 168
-3.7276814 9.551156 1.6199425 199
-3.7459781 9.5980368 1.26085 112
-3.7451119 9.5958166 0.90002185 152
-1.8697944 4.7908325 0.27256405 6
-1.8139726 4.6478047 0.086686946 6
-0.94398248 2.4413118 -0.70213515 24
0.1 0.1 0.1 -1
-0.61945182 1.602016 -0.33514792 104
-0.60544872 1.5658015 -0.26776415 50
0.1 0.1 0.1 -1
-1.7748007 4.5899601 -0.43121934 73
-1.7502698 4.5265188 -0.25842705 5
-1.7596892 4.550879 -0.085993782 4
-6.2121363 16.065723 4.605515 210
-3.6549027 9.4522486 2.3359535 116
-3.6783776 9.5129595 1.9812237 158
-3.7012196 9.572032 1.6215032 225
-3.708647 9.5912418 1.2584206 116
-3.7113545 9.5982437 0.89915144 156
-1.8547343 4.7966833 0.27256405 9
-1.806574 4.6721315 0.087034389 6
-0.94321823 2.4623041 -0.70731694 93
-0.96537006 2.5201323 -0.6244145 1
0.1 0.1 0.1 -1
-0.59346163 1.5492523 -0.26461399 161
-1.6331366 4.26336 -0.56269467 7
-1.7674991 4.6141181 -0.43296516 9
-1.746757 4.5599704 -0.26002228 5
-1.7561133 4.5843954 -0.08652243 4
-6.1512666 16.058096 4.5977659 219
-3.6217039 9.4545851 2.3337073 121
-3.6484737 9.5244684 1.9812237 159
-3.6640632 9.5651646 1.618382 214
-3.6749463 9.5935764 1.2572058 128
-3.6883097 9.6284609 0.90089226 172
-1.8575168 4.8491125 0.27521029 31
-1.7954638 4.6871209 0.087208115 10
-0.94233137 2.4833157 -0.71249878 47
-0.93325269 2.4593906 -0.60863507 66
-1.0237482 2.6978724 -0.56304848 35
0.1 0.1 0.1 -1
-1.6267772 4.2870283 -0.5651412 9
-1.7635976 4.6475897 -0.43558389 6
-1.7359656 4.5747714 -0.26055402 4
-1.7452496 4.5992374 -0.086698644 4
-6.0905061 16.050245 4.5900168 203
-3.5885265 9.4568052 2.3314612 125
-3.6115682 9.5175276 1.9774101 156
-3.6269865 9.5581589 1.6152607 225
-3.6377461 9.5865135 1.2547765 130
-3.6403711 9.5934305 0.89654011 185
-3.5747194 9.4204197 0.53401381 9
-1.8126554 4.7768712 0.088771604 26
-0.95107472 2.5316348 -0.72545326 50
-0.92851818 2.4715922 -0.61088926 90
-1.0113443 2.6920645 -0.56113333 18
-1.6218373 4.3171158 -0.73556387 16
-1.6125519 4.2923994 -0.5651412 9
-1.7516793 4.6627378 -0.4364568 6
-1.731321 4.6085472 -0.26214924 6
-1.7405372 4.6330791 -0.0872273 3
-6.0372481 16.070354 4.5900168 210
-3.55372 9.4595308 2.3292153 129
-3.5799873 9.5294514 1.9774101 153
-3.5883234 9.5516405 1.6121395 214
-3.5989547 9.5799398 1.2523471 134
-3.5980277 9.5774727 0.89392883 175
-3.5469725 9.4415703 0.5345431 13
-1.8214185 4.8483748 0.089987651 3
-0.94985318 2.5527146 -0.73063511 29
-0.93094164 2.5018899 -0.61765188 66
-1.0097276 2.7136261 -0.56496364 34
-1.6289296 4.3777208 -0.74501437 48
-1.6059813 4.3160477 -0.56758767 12
-1.7439703 4.6868911 -0.43820262 5
-1.7203168 4.6233225 -0.26268101 5
-1.732947 4.6572657 -0.087579735 5
-5.9698868 16.04397 4.5771017 206
-3.5171878 9.452383 2.324723 117
-3.5431852 9.5222502 1.9735963 171
-3.5548537 9.5536089 1.6105788 214
-3.5653791 9.5818968 1.2511325 131
-3.5748699 9.6074028 0.8956697 197
-3.5138109 9.4433079 0.53401381 7
-1.8131516 4.8728147 0.090335093 3
-0.94227499 2.5555215 -0.73063511 61
-0.93025529 2.5229232 -0.62216032 14
-0.99488074 2.6981924 -0.56113333 17
-1.6227663 4.4010658 -0.74816453 114
-1.6000354 4.3394179 -0.57003415 8
-1.736949 4.7107382 -0.43994847 11
-1.7169554 4.6565142 -0.26427624 5
-1.72258 4.6717682 -0.087755948 4
-5.9222574 16.061613 4.5771017 225
-3.4823844 9.4444923 2.3202307 107
-3.5149164 9.5327215 1.9735963 171
-3.5264919 9.5641146 1.6105788 214
-3.5334995 9.5831203 1.2499177 130
-3.5325627 9.5805798 0.89218801 126
-3.482322 9.4443226 0.53348458 5
-1.8056037 4.896935 0.090682536 3
-0.93800294 2.567378 -0.733226 28
-0.9261089 2.5348232 -0.6244145 70
-0.99023879 2.7103512 -0.56304848 27
-1.6266451 4.4522386 -0.75603992 75
-1.5973707 4.3721128 -0.57370394 11
-1.726383 4.7252278 -0.44082138 7
-1.7065586 4.6709671 -0.26480797 5
-1.7155733 4.695641 -0.088108383 7
-5.8712602 16.07004 4.5745187 219
-3.4543467 9.4547825 2.3202307 137
-3.4798796 9.5246677 1.9697826 173
-3.4879303 9.5467033 1.6058968 225
-3.4948316 9.5655918 1.2462736 95
-3.4801905 9.5255184 0.88609499 1
-3.4440043 9.4264746 0.53189683 5
-1.7944975 4.9116621 0.090856262 4
-0.93888384 2.5978873 -0.74099869 51
-0.92718923 2.5655284 -0.63117713 16
-0.97409999 2.6953301 -0.55921823 22
-1.5842425 4.3835917 -0.74343926 12
-1.5922196 4.405664 -0.57737368 8
-1.7132642 4.7405939 -0.44169429 10
-1.6970316 4.6956782 -0.26587147 5
-1.7331554 4.7956328 -0.08987055 7
-5.7987118 16.04501 4.5616035 186
-3.4146984 9.4484549 2.3157384 120
-3.4299285 9.4905958 1.9602484 91
-3.4411559 9.5216627 1.5996543 87
-3.4108145 9.4377079 1.2280533 1
-3.4299891 9.4907637 0.88174289 1
-3.4076846 9.4290476 0.5313676 4
-1.7841383 4.9367027 0.091203704 5
-0.933972 2.6099179 -0.74358964 29
-0.92240745 2.5776014 -0.63343132 68
-0.96893448 2.707618 -0.56113333 23
-1.5771177 4.4071422 -0.74658942 64
-1.5917469 4.4480228 -0.58226669 8
-1.7084321 4.7740912 -0.44431302 11
-1.6890004 4.7197905 -0.26693493 4
-1.7618752 4.9234338 -0.092161365 3
-3.3688936 9.4141321 2.67342 103
-3.3817151 9.4499607 2.3134923 138
-3.3570988 9.3811722 1.9354591 1
-3.3712895 9.4208269 1.5809267 1
-3.4045589 9.5137959 1.2365562 5
-3.4236519 9.5671501 0.88783586 19
-3.374681 9.4303045 0.53083831 8
-1.7719892 4.9516969 0.091377422 3
-0.92899376 2.621943 -0.74618053 45
-0.91755885 2.5896697 -0.6356855 18
-0.96042347 2.7106485 -0.56113333 19
-1.5599664 4.4027672 -0.74501437 14
-1.5910238 4.4904218 -0.58715963 9
-1.6967524 4.7888246 -0.44518593 9
-1.6808344 4.7438984 -0.26799843 6
-1.7597558 4.9666424 -0.092866234 5
-3.3134906 9.3518219 2.652756 1
-3.3455019 9.4421682 2.3090003 66
-3.3505595 9.4564428 1.9488072 6
-3.3614693 9.4872332 1.5902904 6
-3.3879135 9.5618687 1.2414149 10
-39.924458 112.68069 10.445127 -1
-3.3417032 9.431447 0.53030908 10
-1.7564243 4.9572396 0.091377422 4
-0.9271462 2.6430767 -0.75136232 27
-0.92554313 2.6385067 -0.64695656 47
-0.9551518 2.7229142 -0.56304848 23
-1.5461271 4.4076462 -0.74501437 37
-1.593335 4.5422249 -0.5932759 10
-1.684997 4.8035316 -0.44605887 9
-1.6725335 4.7680016 -0.26906192 4
-1.7507632 4.9910159 -0.093218669 3
-3.2904902 9.3804169 2.657922 23
-3.3190475 9.4618263 2.3112464 32
-38.992188 111.15759 22.882277 -1
-39.234318 111.84785 18.727659 -1
-39.426895 112.39685 14.576301 -1
-5.7080107 16.272202 1.5067097 19
-3.3021407 9.4136295 0.52872133 9
-1.7474612 4.9816027 0.091724865 4
-0.92200661 2.6551003 -0.75395322 36
-0.92044544 2.6506047 -0.64921075 20
-0.94337314 2.7166295 -0.56113333 20
-1.5290329 4.4031529 -0.74343926 20
-1.598592 4.6034622 -0.60061538 8
-1.6698979 4.8088017 -0.44605887 10
-1.6640978 4.792099 -0.27012539 6
-1.7383548 5.0059366 -0.093394883 5
-38.029209 109.51263 30.996174 -1
-3.279716 9.4445915 2.304508 48
-38.642784 111.27954 22.882277 -1
-38.882748 111.97057 18.727659 -1
-39.073597 112.52016 14.576301 -1
-5.647058 16.261822 1.5040984 9
-3.2692747 9.4145241 0.5281921 5
-1.7350824 4.9965134 0.09189859 6
-0.9262197 2.6945198 -0.76431686 30
-0.91528082 2.6626968 -0.65146494 26
-0.93802452 2.7288618 -0.56304848 21
-1.5151925 4.4079347 -0.74343926 21
-1.6002536 4.6553907 -0.60673165 10
-1.6644974 4.8422861 -0.4486776 10
-1.7204497 5.0050602 -0.28182375 6
-1.72912 5.0302839 -0.093747318 4
-5.5145683 16.042751 4.5357738 174
-3.2468612 9.4456329 2.3022618 126
-3.261287 9.4876003 1.9488072 136
-3.2719061 9.5184927 1.5902904 133
-3.278286 9.5370522 1.2341268 86
-5.5862269 16.251219 1.5014871 48
-3.2396822 9.4247475 0.5281921 3
-1.7323778 5.0397611 0.092593469 7
-0.92086112 2.7065601 -0.76690775 28
-0.91632551 2.6932292 -0.65822756 39
-0.92312413 2.7132115 -0.55921823 21
-1.5013372 4.412673 -0.74343926 21
-1.6143917 4.7449589 -0.61774087 7
-1.6556941 4.8663535 -0.45042342 10
-1.7175831 5.048255 -0.28395072 5
-1.7133085 5.0356913 -0.093747318 5
-5.4610295 16.050852 4.5331907 223
-3.2108934 9.437336 2.2977695 123
-3.2377887 9.516386 1.9526209 130
-3.2419868 9.5287247 1.5902904 164
-3.2515054 9.5567017 1.2353414 73
-5.5319362 16.259256 1.5006167 73
-3.200408 9.406518 0.52660435 4
-1.7229775 5.0641103 0.092940912 5
-0.91543591 2.7185931 -0.76949865 26
-0.91096908 2.705328 -0.66048175 33
-0.92086017 2.7347016 -0.56304848 18
-1.4874669 4.4173679 -0.74343926 22
-1.6121461 4.787631 -0.62263387 11
-1.6499351 4.8998537 -0.45304218 5
-1.7080885 5.0725536 -0.28501418 3
-1.7038614 5.0599999 -0.094099753 5
-5.4013286 16.040462 4.5254416 225
-3.1781197 9.4381418 2.2955236 127
-3.2047434 9.5172071 1.950714 137
-3.2088833 9.5295019 1.5887299 171
-3.215131 9.5480556 1.2329121 70
-5.4681125 16.238791 1.4971349 75
-3.1708407 9.4165258 0.52660435 4
-1.7230134 5.1168766 0.093809523 6
-0.91910475 2.7581084 -0.77986228 46
-0.91170585 2.7359052 -0.66724437 24
-0.91226429 2.737581 -0.56304848 18
-1.476704 4.4313879 -0.74501437 15
-1.5845466 4.7550087 -0.61774087 8
-1.6345336 4.9050131 -0.45304218 10
-1.7016152 5.1063156 -0.28660941 6
-1.6911175 5.0748138 -0.094275966 3
-5.3448014 16.039021 4.5202756 225
-3.1453726 9.4388351 2.2932775 127
-3.171725 9.5179157 1.9488072 141
-3.175807 9.5301647 1.5871692 158
-3.178843 9.5392752 1.2304827 66
-5.4107709 16.236988 1.4953941 91
-3.1380854 9.4169674 0.52607507 4
-3.1420152 9.4287605 0.17267901 2
-0.91043538 2.760982 -0.77986228 31
-0.90615731 2.7480085 -0.66949856 40
-0.90365946 2.7404335 -0.56304848 17
-1.4627751 4.4360051 -0.74501437 24
-1.5727086 4.7693892 -0.61896414 7
-1.6284751 4.9385061 -0.45566091 10
-1.6918193 5.1306033 -0.28767291 5
-1.6814286 5.0990925 -0.094628401 3
-5.2822852 16.019035 4.5099435 225
-3.1065493 9.420907 2.2865391 121
-3.1325855 9.4998646 1.9430866 143
-3.1427584 9.530714 1.5856086 163
-3.1488588 9.5492144 1.2304827 67
-5.3566146 16.244444 1.4945236 67
-3.1053584 9.4172955 0.52554584 4
-3.1123786 9.4385843 0.17267901 2
-0.91074461 2.7913752 -0.78763497 29
-0.90658557 2.7786279 -0.67626119 35
-0.89809006 2.7525897 -0.56496364 21
-1.4488318 4.4405789 -0.74501437 19
-1.5577174 4.7743063 -0.61896414 7
-1.6160423 4.9530683 -0.45653382 8
-1.6756927 5.1358933 -0.28767291 4
-1.665401 5.1043496 -0.094628401 4
-5.2319341 16.035551 4.5099435 219
-3.0799599 9.4398842 2.2887852 125
-3.0996804 9.5003262 1.9411798 141
-3.1097374 9.5311499 1.5840479 165
-3.1157646 9.5496235 1.229268 65
-5.2993746 16.24225 1.4927828 67
-3.0695629 9.4080181 0.52448732 4
-3.0765083 9.4293051 0.17233157 2
-0.9049378 2.8034141 -0.79022592 34
-0.90683031 2.8092771 -0.68302381 26
-0.89245319 2.7647378 -0.56687874 21
-1.4348742 4.4451084 -0.74501437 20
-1.5366131 4.7602863 -0.61651766 8
-1.655557 5.1287637 -0.47224626 7
-1.6626171 5.1506352 -0.28820464 4
-1.6554998 5.1285863 -0.094980836 4
-5.1696606 16.015133 4.4996114 199
-3.0472951 9.4402399 2.2865391 125
-3.069819 9.5100174 1.9411798 144
-3.0767448 9.5314732 1.5824872 165
-3.0826993 9.5499191 1.2280533 68
-5.2422018 16.239859 1.491042 69
-3.0399916 9.4176149 0.52448732 4
-3.0468702 9.4389238 0.17233157 2
-0.90494049 2.8338456 -0.79799861 32
-0.90392762 2.8306739 -0.68753219 31
-0.88376307 2.7675281 -0.56687874 21
-1.4178984 4.440187 -0.74343926 23
-1.5246699 4.7745447 -0.61774087 8
-1.6545882 5.1813879 -0.47661084 6
-1.6494654 5.1653457 -0.2887364 4
-1.6485044 5.1623359 -0.095509484 5
-5.1134448 16.01289 4.4944453 206
-3.0116942 9.431201 2.2820468 109
-3.0369413 9.5102634 1.9392729 146
-3.043781 9.531682 1.5809267 171
-3.0466433 9.5406456 1.225624 72
-5.1911569 16.256248 1.491042 77
-3.0043149 9.4080935 0.5234288 4
-3.0111189 9.4294004 0.17198412 3
-0.90185165 2.8550944 -0.8031804 39
-0.89796489 2.8427899 -0.68978643 35
-0.88393319 2.798368 -0.57262415 23
-1.4069166 4.4540362 -0.74501437 21
-1.5096626 4.7793112 -0.61774087 9
-1.6473039 5.2150578 -0.47922957 16
-1.6362377 5.1800241 -0.28926814 4
-1.6413131 5.1960917 -0.096038133 5
-5.0631137 16.028875 4.4944453 210
-2.9791152 9.431324 2.2798007 137
-3.0040922 9.510397 1.937366 146
-3.0108461 9.5317793 1.579366 170
-3.0166554 9.550169 1.225624 71
-3.0186229 9.5563984 0.87564987 182
-2.971736 9.4079628 0.52289957 4
-2.9784691 9.4292793 0.1718104 4
-0.9015184 2.885571 -0.81095314 32
-0.90065092 2.8827941 -0.69880325 35
-0.88099128 2.8198678 -0.5764544 41
-1.3899721 4.4490085 -0.74343926 20
-1.4946406 4.7840304 -0.61774087 8
-1.6309123 5.2202072 -0.47922957 5
-1.6259118 5.2042022 -0.29033163 4
-1.6339258 5.2298527 -0.096566789 3
-5.0098515 16.03548 4.4918623 210
-2.9494712 9.4406366 2.2798007 129
-2.9683449 9.5010471 1.9335524 147
-2.9749954 9.5223341 1.5762447 171
-2.9807177 9.5406504 1.2231945 64
-2.9885857 9.565835 0.87564987 105
-2.9451432 9.4267836 0.5234288 3
-2.9458499 9.4290457 0.17163669 5
-0.89815128 2.9068451 -0.81613493 27
-0.89158988 2.8856094 -0.69880325 27
-0.88082039 2.850754 -0.58219981 31
-1.3759882 4.4533529 -0.74343926 30
-1.4796038 4.788702 -0.61774087 8
-1.6292086 5.2728944 -0.48359415 16
-1.6154501 5.2283659 -0.2913951 4
-1.6292942 5.2731714 -0.097271651 6
