# .PCD v0.7 - Point Cloud Data file format
VERSION 0.7
FIELDS x y z intensity
SIZE 4 4 4 4
TYPE F F F F
COUNT 1 1 1 1
WIDTH 1491
HEIGHT 1
VIEWPOINT 0 0 0 1 0 0 0
POINTS 1491
DATA ascii
4.1045251 0.74739873 0.81041396 4
4.1008601 0.7467314 0.65858936 3
4.0916924 0.74506205 0.50895584 3
4.0771685 0.74241734 0.36209777 3
4.0771413 0.74241245 0.21963899 5
4.0822477 0.74334222 0.072094351 5
0.1 0.1 0.1 -1
0.1 0.1 0.1 -1
0.1 0.1 0.1 -1
2.3524654 0.42073256 -0.38117012 171
2.3740807 0.4245984 -0.29724959 42
2.5398135 0.45423931 -0.22608462 33
4.0597401 0.72607434 -0.21960983 3
4.0550179 0.72522986 -0.072601303 4
4.098702 0.7330426 1.1132792 5
4.1150889 0.73597336 0.96358085 4
4.0971894 0.73277211 0.80850708 4
4.0934625 0.73210555 0.65702873 3
4.0940127 0.73220396 0.50895584 2
4.0794806 0.7296049 0.36209777 3
4.0794535 0.72960013 0.21963899 5
4.0747204 0.72875357 0.071920633 3
0.1 0.1 0.1 -1
0.1 0.1 0.1 -1
0.1 0.1 0.1 -1
2.3439772 0.4120411 -0.37959504 171
2.3851051 0.41927081 -0.29847282 32
2.4920931 0.43807796 -0.22172005 92
4.0520411 0.71229678 -0.21907808 3
4.0473046 0.71146411 -0.07242509 3
4.1103735 0.72255087 1.1158623 5
4.107657 0.72207332 0.96133471 6
4.0896773 0.71891272 0.80660021 4
4.0956168 0.71995676 0.65702873 4
4.0961676 0.72005361 0.50895584 3
4.071816 0.71577293 0.36122733 3
4.0717654 0.71576405 0.21910974 4
4.0768647 0.71666044 0.071920633 5
0.1 0.1 0.1 -1
0.1 0.1 0.1 -1
0.1 0.1 0.1 -1
2.3646517 0.40844628 -0.38274521 97
2.3765585 0.41050291 -0.29724959 26
2.5130148 0.43407303 -0.22346589 26
4.0639768 0.7019707 -0.21960983 3
4.0592504 0.70115423 -0.072601303 3
4.0934601 0.70706332 1.1106962 5
4.1001792 0.70822388 0.95908862 5
4.0917926 0.70677525 0.80660021 3
4.0880013 0.70612043 0.65546811 3
4.0982857 0.70789689 0.50895584 3
4.0739217 0.70368844 0.36122733 3
4.0738711 0.70367974 0.21910974 5
4.0789733 0.704561 0.071920633 3
0.1 0.1 0.1 -1
0.1 0.1 0.1 -1
2.380583 0.40307289 -0.47112221 188
2.3465199 0.39730543 -0.37959504 159
2.3876922 0.40427658 -0.29847282 15
2.5242624 0.42740023 -0.2243388 34
4.0662823 0.68849021 -0.21960983 5
4.0516949 0.68602031 -0.07242509 3
4.0957823 0.69348502 1.1106962 4
4.1025052 0.69462329 0.95908862 5
4.084435 0.69156373 0.8046934 3
4.1000595 0.69420922 0.65702873 4
4.1006107 0.69430256 0.50895584 3
4.0762329 0.690175 0.36122733 3
4.0761824 0.69016641 0.21910974 4
4.0714288 0.68936157 0.071746916 5
0.1 0.1 0.1 -1
0.1 0.1 0.1 -1
2.39152 0.3972002 -0.47303733 157
2.3867235 0.39640355 -0.38589537 86
2.4085321 0.4000257 -0.30091932 20
2.5059383 0.41620359 -0.22259296 10
4.0585742 0.67407614 -0.21907808 4
4.0538301 0.67328817 -0.07242509 3
4.0884104 0.67903155 1.1081133 4
4.1046672 0.68173152 0.95908862 5
4.096271 0.68033707 0.80660021 3
4.0924759 0.67970675 0.65546811 4
4.0929799 0.67979044 0.50774115 3
4.0685534 0.67573351 0.3603569 3
4.0783305 0.67735732 0.21910974 4
4.0735745 0.67656744 0.071746916 4
0.1 0.1 0.1 -1
0.1 0.1 0.1 -1
2.4121306 0.39284042 -0.47686759 175
2.3587167 0.38414142 -0.38117012 152
2.3901854 0.3892664 -0.29847282 12
2.4974012 0.40672761 -0.22172005 14
4.0606718 0.66132241 -0.21907808 14
4.0559254 0.66054934 -0.07242509 3
4.1000586 0.66773695 1.1106962 6
4.0971708 0.66726661 0.95684248 4
4.0886993 0.665887 0.8046934 4
4.0848422 0.66525882 0.65390748 4
4.0852985 0.66533309 0.50652641 2
4.0706563 0.66294849 0.3603569 3
4.0804381 0.66454154 0.21910974 4
4.0756798 0.66376662 0.071746916 4
0.1 0.1 0.1 -1
0.1 0.1 0.1 -1
2.4133527 0.38526055 -0.47686759 226
2.3794153 0.37984288 -0.38432029 113
2.4011972 0.38332006 -0.29969609 20
2.4986668 0.3988798 -0.22172005 11
118.33193 18.890162 -6.3809147 -1
4.0481071 0.6462279 -0.072248876 4
4.0830564 0.65180713 1.1055303 5
4.099247 0.65439171 0.95684248 4
4.0907712 0.65303868 0.8046934 3
4.0966659 0.65397972 0.65546811 4
4.0873685 0.6524955 0.50652641 3
4.0727191 0.65015686 0.3603569 3
4.0726447 0.65014499 0.21858048 4
4.0678716 0.64938307 0.07157319 4
0.1 0.1 0.1 -1
0.1 0.1 0.1 -1
0.1 0.1 0.1 -1
2.3805969 0.37236586 -0.38432029 132
2.3925838 0.37424082 -0.29847282 18
2.4900653 0.38948858 -0.22084714 19
118.39069 18.518318 -6.3809147 -1
4.0599957 0.63505238 -0.07242509 16
4.085084 0.63897663 1.1055303 5
4.0916548 0.64000446 0.9545964 4
4.0928025 0.64018399 0.8046934 3
4.0987005 0.64110649 0.65546811 3
4.0893979 0.63965142 0.50652641 3
4.0747414 0.63735884 0.3603569 3
4.0845332 0.63889045 0.21910974 4
4.0698915 0.63660026 0.07157319 4
0.1 0.1 0.1 -1
0.1 0.1 0.1 -1
0.1 0.1 0.1 -1
2.3719938 0.36338973 -0.38274521 141
2.3937478 0.36672246 -0.29847282 26
2.4814296 0.38015535 -0.21997423 22
2.6157329 0.40073061 -0.14091188 48
4.0619707 0.62229443 -0.07242509 54
4.0870714 0.62613982 1.1055303 5
4.0936456 0.62714702 0.9545964 4
4.0850902 0.62583637 0.80278653 3
4.0811672 0.62523532 0.65234685 3
4.0913873 0.62680107 0.50652641 2
4.0767236 0.62455457 0.3603569 3
4.0865202 0.62605536 0.21910974 4
4.0817547 0.62532532 0.071746916 4
0.1 0.1 0.1 -1
0.1 0.1 0.1 -1
0.1 0.1 0.1 -1
2.3925929 0.35928321 -0.38589537 126
2.4242699 0.36404002 -0.30214259 37
2.5022495 0.3757498 -0.22172005 34
2.6169105 0.39296782 -0.14091188 49
4.0637989 0.61023957 -0.07242509 48
4.0793576 0.61257589 1.1029472 4
4.1051245 0.61644524 0.95684248 4
4.0869293 0.61371291 0.80278653 3
4.083004 0.61312354 0.65234685 3
4.0932293 0.61465895 0.50652641 3
4.0785584 0.61245596 0.3603569 3
4.0784841 0.61244476 0.21858048 5
4.0737042 0.611727 0.07157319 4
0.1 0.1 0.1 -1
0.1 0.1 0.1 -1
2.4275897 0.35717657 -0.47878271 228
2.4034183 0.35362017 -0.38747048 128
2.3958819 0.35251132 -0.29847282 28
2.5033534 0.36832383 -0.22172005 45
2.5983059 0.38229442 -0.13984838 38
4.0655918 0.59817934 -0.07242509 50
4.0811572 0.60046953 1.1029472 4
4.0972948 0.60284394 0.9545964 7
4.0887322 0.60158408 0.80278653 3
4.0945778 0.60244411 0.65390748 3
4.0852146 0.60106653 0.50531173 3
4.0705018 0.59890181 0.35948649 3
4.0802836 0.60034102 0.21858048 6
4.0755014 0.59963739 0.07157319 6
0.1 0.1 0.1 -1
0.1 0.1 0.1 -1
2.4093308 0.34633142 -0.47495246 145
2.4045777 0.3456482 -0.38747048 74
2.3970377 0.34456435 -0.29847282 50
2.4947004 0.35860297 -0.22084714 32
2.5896749 0.37225518 -0.13931665 52
4.0774498 0.58611667 -0.072601303 49
4.0831261 0.58693266 1.1029472 5
4.0992713 0.58925349 0.9545964 5
4.0907044 0.58802205 0.80278653 3
4.0769992 0.58605188 0.65078616 4
4.0871854 0.58751619 0.50531173 3
4.0823264 0.58681768 0.3603569 3
4.082252 0.58680701 0.21858048 6
4.0873642 0.58754188 0.071746916 7
0.1 0.1 0.1 -1
0.1 0.1 0.1 -1
2.4104068 0.33876058 -0.47495246 94
2.3860936 0.33534357 -0.38432029 181
2.3981082 0.33703214 -0.29847282 36
2.5451391 0.35769597 -0.22521171 24
2.5809431 0.36272791 -0.1387849 33
4.0693698 0.57191265 -0.07242509 50
4.0849495 0.57410222 1.1029472 5
4.0914526 0.5750162 0.95235026 5
4.0925317 0.57516783 0.80278653 3
4.0886011 0.57461542 0.65234685 4
4.0988402 0.57605445 0.50652641 3
4.0841498 0.57398981 0.3603569 4
4.0939641 0.57536912 0.21910974 6
4.08919 0.57469815 0.071746916 6
0.1 0.1 0.1 -1
0.1 0.1 0.1 -1
2.4114592 0.33118641 -0.47495246 59
2.406702 0.33053306 -0.38747048 57
2.3794901 0.32679582 -0.29602632 47
2.4771659 0.3402105 -0.21910131 26
2.5721769 0.35325915 -0.13825315 50
4.0810518 0.5604859 -0.072601303 27
4.0867333 0.56126618 1.1029472 4
4.1028929 0.56348556 0.9545964 4
4.0943184 0.56230795 0.80278653 4
4.0903864 0.56176794 0.65234685 3
4.090796 0.5618242 0.50531173 3
4.0859327 0.56115627 0.3603569 4
4.0957513 0.56250471 0.21910974 9
4.1008806 0.56320918 0.071920633 6
0.1 0.1 0.1 -1
0.1 0.1 0.1 -1
2.40276 0.3223041 -0.47303733 84
2.3881536 0.32034481 -0.38432029 92
2.3903418 0.32063833 -0.29724959 50
2.4584758 0.32977778 -0.21735549 90
2.5831711 0.3465043 -0.1387849 40
4.102612 0.55032074 -0.072953738 36
4.0789013 0.54714024 1.1003642 5
4.094985 0.54929763 0.95235026 5
4.0960646 0.54944253 0.80278653 3
4.0921311 0.54891485 0.65234685 4
4.0925412 0.54896981 0.50531173 4
4.0876756 0.54831719 0.3603569 3
4.1172929 0.55229002 0.22016825 5
4.1026297 0.55032313 0.071920633 8
0.1 0.1 0.1 -1
0.1 0.1 0.1 -1
2.4232244 0.31730264 -0.47686759 130
2.4087312 0.31540489 -0.38747048 53
2.4110191 0.31570446 -0.29969609 53
2.4891322 0.32593277 -0.21997423 1
2.554543 0.33449781 -0.13718967 39
4.1043205 0.53742933 -0.072953738 53
4.0806003 0.53432328 1.1003642 5
4.0966902 0.53643018 0.95235026 5
4.0977707 0.53657162 0.80278653 4
4.1036291 0.53733879 0.65390748 5
4.1040874 0.53739876 0.50652641 4
4.1091332 0.53805953 0.36209777 3
4.1289091 0.540649 0.22069749 8
4.1142526 0.53872979 0.072094351 3
0.1 0.1 0.1 -1
0.1 0.1 0.1 -1
2.4631524 0.31466323 -0.48452812 128
2.4097102 0.30783609 -0.38747048 182
2.411999 0.30812848 -0.29969609 50
2.4604993 0.31432429 -0.21735549 142
2.5555813 0.32647085 -0.13718967 41
119.01417 15.203842 -2.1146011 -1
4.0918412 0.52272528 1.1029472 5
4.1080213 0.52479225 0.9545964 4
4.0994363 0.52369547 0.80278653 5
4.1052971 0.52444422 0.65390748 4
4.1057553 0.52450275 0.50652641 3
4.1108036 0.52514762 0.36209777 4
4.1603036 0.53147119 0.22228524 12
4.1555963 0.53086984 0.072789237 5
0.1 0.1 0.1 -1
0.1 0.1 0.1 -1
2.4738684 0.30813658 -0.48644325 125
2.4400637 0.30392602 -0.39219573 71
2.4326527 0.30300292 -0.30214259 46
2.4515891 0.30536157 -0.21648258 37
2.5863221 0.32214347 -0.1387849 124
3.1055167 0.38681254 -0.055155847 19
4.0838766 0.50867373 1.1003642 5
4.1096497 0.51188391 0.9545964 10
4.1205435 0.51324081 0.80660021 5
4.1167259 0.51276535 0.65546811 4
4.1369324 0.51528215 0.51017052 3
4.1322041 0.51469326 0.36383861 6
4.2115002 0.52457005 0.22493149 14
4.226696 0.52646285 0.074005291 5
0.1 0.1 0.1 -1
0.1 0.1 0.1 -1
2.4943111 0.30272827 -0.49027351 218
2.4017937 0.29149967 -0.38589537 141
2.4138875 0.29296744 -0.29969609 52
2.4525363 0.29765818 -0.21648258 53
2.6071477 0.31642297 -0.13984838 125
3.1067166 0.37705439 -0.055155847 154
4.0854545 0.49584138 1.1003642 6
4.1209111 0.5001446 0.95684248 9
4.1221356 0.50029325 0.80660021 4
4.1379275 0.5022099 0.65858936 5
4.1483846 0.503479 0.5113852 4
4.2030272 0.51011086 0.36993161 8
4.3023462 0.522165 0.22969475 18
4.3176599 0.52402359 0.07556878 12
0.1 0.1 0.1 -1
0.1 0.1 0.1 -1
2.485554 0.29330495 -0.48835838 144
2.4223614 0.28584799 -0.38904557 126
2.4148457 0.2849611 -0.29969609 53
2.45351 0.28952366 -0.21648258 51
2.5982656 0.30660537 -0.13931665 127
3.0682316 0.36206317 -0.054450981 66
4.1062646 0.48455507 1.1055303 6
4.1322241 0.48761842 0.95908862 8
4.1335211 0.48777142 0.80850708 4
4.1591892 0.49080035 0.66171068 7
4.1894617 0.49437264 0.51624399 15
4.2640562 0.50317508 0.37515417 7
119.00611 14.04318 6.351007 -1
119.15514 14.060767 2.084656 -1
0.1 0.1 0.1 -1
0.1 0.1 0.1 -1
2.4962139 0.28661451 -0.49027351 146
2.4428689 0.28048944 -0.39219573 123
2.4255891 0.27850538 -0.30091932 65
2.4544075 0.28181431 -0.21648258 66
2.6091366 0.29958025 -0.13984838 127
3.0792871 0.3535628 -0.054627195 139
4.1173644 0.47275448 1.1081133 6
4.1434169 0.47574583 0.96133471 8
4.1545377 0.47702274 0.81232083 9
4.2097754 0.48336512 0.66951382 18
4.2797446 0.49139893 0.5271762 13
118.76424 13.636474 10.445127 -1
119.04964 13.669243 6.351007 -1
28.697094 3.2949915 0.50188094 129
0.1 0.1 0.1 -1
0.1 0.1 0.1 -1
2.5166106 0.28094891 -0.49410376 227
2.4535522 0.27390921 -0.39377081 126
2.4264522 0.2708838 -0.30091932 73
2.4552808 0.27410218 -0.21648258 130
2.610065 0.29138196 -0.13984838 129
3.0605092 0.34166858 -0.054274764 81
4.1284299 0.46088892 1.1106962 6
4.2029967 0.46921337 0.97481138 18
4.2340631 0.47268155 0.82757568 16
4.2898049 0.47890449 0.68199897 15
4.3404551 0.48455894 0.53446436 21
28.434355 3.1743493 2.4998672 15
28.343895 3.1642506 1.5115397 51
119.24114 13.311821 2.084656 -1
0.1 0.1 0.1 -1
0.1 0.1 0.1 -1
0.1 0.1 0.1 -1
2.4445829 0.26513502 -0.39219573 95
2.4272912 0.26325956 -0.30091932 56
2.4561298 0.26638734 -0.21648258 64
2.6109674 0.28318077 -0.13984838 129
3.0715077 0.33313012 -0.054450981 133
4.1778793 0.45312515 1.1236113 15
4.2625761 0.46231124 0.98828804 22
4.2940831 0.4657284 0.8390168 13
4.3403878 0.47075054 0.68980217 7
118.41698 12.843289 14.576301 -1
28.454092 3.0860789 2.5007377 6
28.304056 3.0698063 1.5088934 30
27.822613 3.0175898 0.48624602 53
0.1 0.1 0.1 -1
0.1 0.1 0.1 -1
2.5280406 0.26660001 -0.49601892 219
2.4355381 0.25684497 -0.39062065 86
2.4379318 0.25709736 -0.30214259 51
2.4668162 0.26014346 -0.21735549 1
2.6018653 0.27438536 -0.13931665 126
3.0525959 0.32191813 -0.054098547 129
4.227242 0.445793 1.1365263 11
4.3123827 0.4547717 0.99951857 13
4.3540201 0.45916265 0.85045791 41
117.87598 12.430868 18.727659 -1
118.45457 12.491883 14.576301 -1
26.749193 2.8208942 2.3501537 58
28.342833 2.988955 1.5104811 54
28.805893 3.0377879 0.50327069 25
0.1 0.1 0.1 -1
0.1 0.1 0.1 -1
0.1 0.1 0.1 -1
2.4657607 0.25263703 -0.3953459 146
2.4288106 0.24885118 -0.30091932 25
118.91938 12.184247 -10.474963 -1
2.5927341 0.26564649 -0.1387849 128
3.0435913 0.31184042 -0.053922329 130
4.2958188 0.44014117 1.1546075 12
116.32485 11.918416 26.95331 -1
25.575552 2.6204212 4.9940567 93
27.866619 2.8551593 4.4259706 39
29.85976 3.0593724 3.6732278 63
118.92198 12.184513 10.445127 -1
26.950886 2.7613349 1.4358568 29
28.546227 2.9247904 0.49858025 134
0.1 0.1 0.1 -1
0.1 0.1 0.1 -1
0.1 0.1 0.1 -1
2.456758 0.24348493 -0.39377081 113
2.4098694 0.2388379 -0.29847282 20
2.4584887 0.24365647 -0.21648258 63
2.603538 0.25803205 -0.13931665 129
3.0446086 0.30174577 -0.053922329 165
115.36254 11.433377 30.996174 -1
116.36373 11.532603 26.95331 -1
25.60364 2.5375314 4.9978704 31
30.451214 3.017966 4.8348575 131
118.53072 11.74737 14.576301 -1
26.59786 2.6360669 2.3353565 37
26.949957 2.6709626 1.4353275 37
28.277176 2.8025007 0.49371603 1
0.1 0.1 0.1 -1
0.1 0.1 0.1 -1
0.1 0.1 0.1 -1
2.4673407 0.23670867 -0.3953459 152
2.4106078 0.2312659 -0.29847282 17
2.5088236 0.2406884 -0.22084714 14
2.5943956 0.24889791 -0.1387849 131
2.6971953 0.25876018 -0.047754742 225
115.39789 11.070899 30.996174 -1
116.39939 11.16698 26.95331 -1
25.445366 2.4411459 4.9654541 79
117.98791 11.319377 18.727659 -1
27.507553 2.6389854 3.3817017 36
26.625843 2.5543971 2.3370974 161
26.689825 2.5605354 1.4210378 26
28.156454 2.7012389 0.49145767 132
0.1 0.1 0.1 -1
0.1 0.1 0.1 -1
2.5507784 0.23617953 -0.49984917 145
2.4976115 0.23125675 -0.40007114 154
2.4212441 0.22418581 -0.29969609 15
2.4798498 0.22961217 -0.2182284 24
2.5952067 0.2402932 -0.1387849 134
2.6283476 0.24336176 -0.046521224 92
115.43397 10.688165 30.996174 -1
116.43578 10.780924 26.95331 -1
25.384899 2.3504174 4.952106 37
27.598131 2.5553432 4.3791513 23
27.496386 2.5459223 3.3792722 61
26.673845 2.4697623 2.340579 14
26.728001 2.4747767 1.4226255 39
27.916359 2.5848081 0.48711464 58
0.1 0.1 0.1 -1
0.1 0.1 0.1 -1
2.5221801 0.22554229 -0.49410376 68
2.4786539 0.22165002 -0.39692098 179
2.412051 0.21569416 -0.29847282 12
2.4904811 0.22270766 -0.21910131 11
2.5959489 0.23213896 -0.1387849 143
2.6589754 0.237775 -0.047049876 147
115.46697 10.325466 30.996174 -1
116.46907 10.415078 26.95331 -1
117.32996 10.492061 22.882277 -1
27.596186 2.4677489 4.3775907 27
28.067778 2.5099204 3.4485097 23
26.661629 2.3841774 2.3388381 38
119.35555 10.673197 6.351007 -1
3.176842 0.28408447 0.055417106 46
0.1 0.1 0.1 -1
0.1 0.1 0.1 -1
2.4837244 0.21467711 -0.48644325 49
2.4891391 0.21514513 -0.39849606 20
2.4126804 0.20853652 -0.29847282 14
2.4812062 0.21445943 -0.2182284 24
2.606575 0.22529551 -0.13931665 134
2.6397464 0.22816265 -0.046697441 110
115.4971 9.9828243 30.996174 -1
116.49947 10.069462 26.95331 -1
24.684839 2.1335983 4.8129053 43
27.554182 2.3816056 4.3697872 144
28.154215 2.4334686 3.4582272 57
26.996111 2.3333697 2.3675623 29
119.3867 10.319016 6.351007 -1
3.0880187 0.26690841 0.053853616 36
0.1 0.1 0.1 -1
0.1 0.1 0.1 -1
2.5039122 0.20893915 -0.49027351 39
0.1 0.1 0.1 -1
2.4231789 0.20220236 -0.29969609 11
2.5016861 0.20875339 -0.21997423 11
2.5972807 0.21673028 -0.1387849 74
2.6304479 0.21949793 -0.046521224 128
115.52621 9.6400938 30.996174 -1
116.52882 9.7237568 26.95331 -1
24.906277 2.0783062 4.8548565 65
118.11911 9.8564587 18.727659 -1
28.052504 2.3408434 3.4448657 31
119.13051 9.940855 10.445127 -1
26.908583 2.2453887 1.4310936 1
2.730098 0.22781324 0.047599647 48
0.1 0.1 0.1 -1
0.1 0.1 0.1 -1
2.4850242 0.19906726 -0.48644325 37
2.5002854 0.2002898 -0.40007114 20
2.4238362 0.19416569 -0.29969609 30
2.4825046 0.19886543 -0.2182284 19
2.5681231 0.20572406 -0.13718967 80
2.6411278 0.21157223 -0.046697441 73
115.55755 9.2569418 30.996174 -1
116.56043 9.3372803 26.95331 -1
24.942387 1.9980541 4.8605766 53
118.15115 9.4647074 18.727659 -1
28.099689 2.2509754 3.4497244 69
28.479914 2.2814341 2.4963856 18
119.44917 9.5686874 6.351007 -1
2.7109053 0.21716188 0.047252204 7
0.1 0.1 0.1 -1
0.1 0.1 0.1 -1
2.4954233 0.19201235 -0.48835838 43
2.4319799 0.18713064 -0.38904557 69
2.4541211 0.18883434 -0.30336583 53
2.5129144 0.19335823 -0.22084714 16
2.5687568 0.19765507 -0.13718967 106
2.6318107 0.20250678 -0.046521224 146
115.58606 8.8938627 30.996174 -1
116.58919 8.9710493 26.95331 -1
24.762577 1.9053764 4.8243465 29
27.260256 2.0975623 4.3198471 44
28.146208 2.1657326 3.4545832 38
28.616066 2.2018862 2.5077012 148
26.275345 2.0217776 1.3966923 40
2.6816671 0.20634304 0.04673104 48
0.1 0.1 0.1 -1
0.1 0.1 0.1 -1
2.4862258 0.18344958 -0.48644325 54
2.462101 0.18166947 -0.39377081 34
2.4349062 0.1796629 -0.30091932 36
2.4737701 0.18253052 -0.21735549 82
2.5892825 0.19105376 -0.13825315 89
2.6124911 0.19276622 -0.046168793 85
115.61343 8.530695 30.996174 -1
116.6168 8.6047297 26.95331 -1
24.81739 1.8311851 4.8338809 62
118.20828 8.7221603 18.727659 -1
28.113277 2.0743766 3.4497244 20
119.22044 8.7968435 10.445127 -1
26.201897 1.9333427 1.3924583 26
2.6623595 0.19644582 0.046383597 32
0.1 0.1 0.1 -1
0.1 0.1 0.1 -1
2.4965804 0.17632946 -0.48835838 72
2.4823608 0.17532514 -0.39692098 52
2.4354587 0.17201254 -0.30091932 32
2.4942057 0.17616174 -0.21910131 15
2.6097922 0.18432543 -0.13931665 100
2.6230574 0.18526232 -0.04634501 97
115.63966 8.1674433 30.996174 -1
30.453609 2.1508894 7.0370598 84
24.852396 1.7552848 4.8396015 34
27.391132 1.9345917 4.3385744 41
118.81544 8.3917437 14.576301 -1
119.2475 8.4222584 10.445127 -1
26.0385 1.8390574 1.383461 29
2.6529899 0.18737639 0.046209875 19
0.1 0.1 0.1 -1
0.1 0.1 0.1 -1
2.497122 0.16848537 -0.48835838 111
2.4828992 0.16752572 -0.39692098 73
2.4656942 0.16636488 -0.30458906 15
2.4848075 0.16765448 -0.2182284 45
2.6003952 0.17545338 -0.1387849 128
2.6136508 0.17634776 -0.046168793 102
115.66474 7.8041105 30.996174 -1
30.479662 2.0565181 7.0415521 105
24.828405 1.6752176 4.8338809 46
27.337944 1.8445408 4.3292108 14
118.84122 8.0184336 14.576301 -1
119.27336 8.0475903 10.445127 -1
26.293232 1.7740523 1.3966923 35
2.6535654 0.17904088 0.046209875 39
0.1 0.1 0.1 -1
0.1 0.1 0.1 -1
1.3614582 0.087564334 -0.26620319 144
2.4932683 0.16035849 -0.39849606 91
2.4860137 0.1598919 -0.30703557 32
2.4753807 0.15920801 -0.21735549 4
2.6009336 0.16728315 -0.1387849 165
2.5942361 0.1668524 -0.045816358 129
115.68869 7.440701 30.996174 -1
30.52487 1.9632553 7.0505366 159
24.804157 1.5953186 4.8281603 57
27.264748 1.7535753 4.3167257 77
29.478725 1.8959708 3.6149225 226
27.388845 1.761557 2.3980272 153
26.328573 1.6933638 1.39828 46
2.6740704 0.17198707 0.046557318 44
0.1 0.1 0.1 -1
0.1 0.1 0.1 -1
1.3715231 0.083885945 -0.26811832 158
2.4937596 0.15252487 -0.39849606 117
2.4567845 0.15026338 -0.30336583 17
2.4858119 0.15203877 -0.2182284 55
2.6114135 0.15972088 -0.13931665 146
2.624687 0.16053273 -0.04634501 137
115.71149 7.0772181 30.996174 -1
25.230047 1.5431359 5.826407 66
117.57842 7.1914043 22.882277 -1
118.30856 7.2360611 18.727659 -1
24.570446 1.5027928 3.0124354 226
27.513567 1.6828018 2.4084723 219
26.313828 1.6094227 1.3972216 46
2.6745975 0.16358539 0.046557318 43
0.1 0.1 0.1 -1
0.1 0.1 0.1 -1
1.3913767 0.080713585 -0.27194858 171
2.4942265 0.14468975 -0.39849606 128
2.477061 0.14369398 -0.30581233 20
2.4962223 0.14480554 -0.21910131 9
2.6218715 0.15209442 -0.13984838 131
2.6251783 0.15228625 -0.04634501 124
115.73315 6.7136655 30.996174 -1
25.176403 1.4604799 5.8129306 127
26.146496 1.5167549 5.0874929 1
27.916185 1.6194143 4.4181671 109
24.515591 1.4221462 3.0051472 163
25.300909 1.4677025 2.2143672 1
29.239737 1.6961933 1.552292 75
2.6551349 0.15402403 0.046209875 61
0.1 0.1 0.1 -1
0.1 0.1 0.1 -1
1.3916235 0.076342054 -0.27194858 203
2.5242498 0.13847597 -0.40322131 96
2.4973202 0.13699867 -0.30825883 33
2.4867182 0.13641705 -0.2182284 46
2.6223364 0.14385684 -0.13984838 63
2.6356273 0.14458595 -0.046521224 92
115.75368 6.3500466 30.996174 -1
25.219786 1.3835138 5.8219147 146
117.62128 6.4525003 22.882277 -1
27.388552 1.5024886 4.3338928 7
29.316885 1.6082736 3.5930581 84
25.305395 1.3882102 2.2143672 155
119.65191 6.5638967 6.351007 -1
2.6755726 0.14677729 0.046557318 101
0.1 0.1 0.1 -1
0.1 0.1 0.1 -1
0.1 0.1 0.1 -1
2.4852242 0.12850538 -0.39692098 127
2.4878266 0.12863992 -0.30703557 43
2.4771857 0.12808973 -0.21735549 84
2.6128027 0.13510217 -0.13931665 23
2.6160982 0.13527256 -0.046168793 57
115.77306 5.9863648 30.996174 -1
25.214275 1.3037736 5.8196688 129
117.64098 6.0829506 22.882277 -1
27.205715 1.4067465 4.3042407 33
29.341619 1.5171893 3.5954874 40
25.299683 1.3081899 2.2134967 78
26.287937 1.3592902 1.3951045 35
2.705976 0.13991995 0.047078483 67
0.1 0.1 0.1 -1
0.1 0.1 0.1 -1
0.1 0.1 0.1 -1
2.4954793 0.12117615 -0.39849606 150
2.4981315 0.12130494 -0.30825883 62
2.5372767 0.12320575 -0.22259296 29
2.683033 0.13028343 -0.14303884 11
2.6165102 0.1270532 -0.046168793 13
115.79129 5.6226244 30.996174 -1
25.179316 1.2226639 5.8106842 131
117.65951 5.7133412 22.882277 -1
25.97677 1.2613869 4.1091609 67
118.97124 5.7770371 14.576301 -1
25.154413 1.2214546 2.2004402 98
26.272129 1.2757289 1.3940461 38
2.7263756 0.13238807 0.047425926 70
0.1 0.1 0.1 -1
0.1 0.1 0.1 -1
0.1 0.1 0.1 -1
1.6671869 0.075706512 -0.26618907 162
2.5183299 0.11435668 -0.31070533 44
2.5077965 0.11387837 -0.21997423 25
2.6934047 0.12230679 -0.14357059 10
2.6069083 0.11837901 -0.045992576 13
26.568373 1.2064627 7.1110392 130
116.81345 5.3044677 26.95331 -1
25.477043 1.1569058 4.9540129 42
25.960871 1.1788763 4.1060395 62
29.360489 1.333252 3.5967021 44
25.635813 1.1641154 2.2422209 26
25.777222 1.1705368 1.3675835 26
2.71679 0.12336871 0.047252204 63
0.1 0.1 0.1 -1
0.1 0.1 0.1 -1
0.1 0.1 0.1 -1
1.6871492 0.071302474 -0.26933923 73
2.5087605 0.10602549 -0.30948207 27
2.5180948 0.10641998 -0.22084714 136
2.7037525 0.11426627 -0.14410232 13
2.6172569 0.11061078 -0.046168793 12
26.620293 1.1250296 7.1239543 166
30.317265 1.2812713 6.9943838 177
25.451128 1.0756181 4.9482923 42
118.42393 5.0048442 18.727659 -1
29.443869 1.2443597 3.6064196 44
25.490046 1.0772629 2.2291644 35
25.661047 1.0844898 1.3612325 35
2.7271535 0.11525524 0.047425926 37
0.1 0.1 0.1 -1
0.1 0.1 0.1 -1
0.1 0.1 0.1 -1
1.6676296 0.065229841 -0.26618907 168
2.5189986 0.098531403 -0.31070533 33
2.5084624 0.098119274 -0.21997423 28
2.7040982 0.10577162 -0.14410232 14
2.6275823 0.10277869 -0.04634501 13
26.893988 1.0519665 7.1962786 136
116.84447 4.5704074 26.95331 -1
25.326864 0.99066806 4.9235029 40
25.869066 1.0118765 4.0904331 23
29.526979 1.1549568 3.6161373 76
25.393761 0.9932847 2.2204602 75
25.993612 1.0167481 1.3786978 38
2.737493 0.10707788 0.047599647 32
0.1 0.1 0.1 -1
0.1 0.1 0.1 -1
0.1 0.1 0.1 -1
1.6875639 0.060700461 -0.26933923 74
2.4994588 0.089903735 -0.30825883 24
2.5187137 0.090596326 -0.22084714 113
2.7143965 0.097634897 -0.14463407 14
2.6478763 0.09524221 -0.046697441 12
26.81027 0.96434617 7.1730313 136
24.881069 0.8949542 5.7388086 1
25.21213 0.90686226 4.9006209 34
25.842505 0.92953634 4.0857511 130
29.431267 1.0586215 3.6039903 41
25.426622 0.91457736 2.2230713 144
26.156351 0.94082522 1.3871658 29
2.7378161 0.098477282 0.047599647 17
0.1 0.1 0.1 -1
0.1 0.1 0.1 -1
1.2850599 0.042180769 -0.25088215 226
1.638397 0.053778693 -0.26146382 219
1.9739922 0.064794265 -0.24342661 98
2.5886812 0.084970795 -0.22695754 18
2.7346509 0.089762099 -0.14569755 22
2.6381693 0.086595193 -0.046521224 11
26.842133 0.88106537 7.1807804 134
24.85454 0.81582469 5.7320704 181
25.322779 0.83119416 4.9215961 44
118.46584 3.888519 18.727659 -1
26.488026 0.86944222 3.2432268 36
25.728069 0.84449744 2.2491841 17
26.109276 0.85701007 1.3845195 24
2.6981394 0.088563651 0.046904761 44
0.1 0.1 0.1 -1
0.1 0.1 0.1 -1
1.2753755 0.037852261 -0.24896702 225
1.6681703 0.04951014 -0.26618907 70
1.954345 0.058003604 -0.24098012 25
2.5988927 0.077133335 -0.22783045 52
2.7349193 0.081170507 -0.14569755 62
2.6384282 0.078306727 -0.046521224 21
26.864082 0.79730731 7.1859465 140
24.856981 0.73773795 5.7320704 126
117.74629 3.4946284 22.882277 -1
118.47747 3.5163291 18.727659 -1
26.460863 0.78534007 3.2395828 24
25.481655 0.75627786 2.2274234 32
25.982079 0.77113008 1.3776393 44
2.6784163 0.079493538 0.046557318 19
0.1 0.1 0.1 -1
0.1 0.1 0.1 -1
1.2852995 0.034105718 -0.25088215 226
1.6189591 0.042959452 -0.25831366 225
1.9445962 0.051600304 -0.23975687 76
2.6190388 0.069496803 -0.22957627 6
40.827766 1.0833741 -2.1748285 86
2.6386614 0.070017487 -0.046521224 52
27.677662 0.73443311 7.4029198 150
116.89268 3.101774 26.95331 -1
117.75669 3.1247008 22.882277 -1
118.48793 3.1441045 18.727659 -1
26.433432 0.70141721 3.2359388 30
25.454029 0.67542851 2.2248123 18
26.164057 0.69426924 1.3871658 58
2.6986427 0.071609102 0.046904761 22
0.1 0.1 0.1 -1
0.1 0.1 0.1 -1
1.2755882 0.029838147 -0.24896702 225
1.658576 0.038796872 -0.26461399 62
1.9249042 0.045026738 -0.23731036 56
119.50925 2.7955217 -10.474963 -1
40.820984 0.9548713 -2.1742969 36
2.6588597 0.062195186 -0.046873659 79
26.173185 0.61223471 6.9999695 226
116.90185 2.7345302 26.95331 -1
25.780924 0.60305905 5.0093117 38
118.49722 2.7718487 18.727659 -1
26.415659 0.61790657 3.2335093 19
48.880348 1.1433934 4.2720571 91
26.355791 0.61650616 1.3972216 27
2.7288415 0.063832179 0.047425926 77
0.1 0.1 0.1 -1
0.1 0.1 0.1 -1
1.2854885 0.026029324 -0.25088215 223
1.6093239 0.032586534 -0.25673857 228
1.9151133 0.038778339 -0.23608711 61
25.347656 0.51325423 -2.2215652 72
40.823784 0.82662386 -2.1742969 27
2.6790347 0.054246664 -0.047226094 15
26.107368 0.52863729 6.9818883 177
31.439009 0.63659549 7.2481942 85
25.831764 0.52305669 5.018846 78
26.40694 0.5347032 4.1731467 22
26.486937 0.53632301 3.242012 26
29.800333 0.6034146 2.6043186 27
26.387548 0.53431058 1.3988093 47
26.110706 0.52870488 0.45376012 29
0.1 0.1 0.1 -1
0.1 0.1 0.1 -1
1.2855639 0.02199072 -0.25088215 197
1.6390395 0.028037237 -0.26146382 67
1.8854554 0.032252401 -0.23241736 55
25.269461 0.43225676 -2.2145817 1
40.796227 0.69785595 -2.1727016 31
2.689189 0.046000984 -0.047402311 40
26.649817 0.45586896 7.1265373 170
31.255735 0.53465736 7.2055182 125
25.744944 0.44039029 5.0016842 29
26.418367 0.45190981 4.1747074 29
26.696905 0.45667446 3.2675207 28
29.822002 0.51013201 2.6060593 41
26.568819 0.45448342 1.4083358 29
26.062254 0.44581816 0.45289153 18
0.1 0.1 0.1 -1
0.1 0.1 0.1 -1
1.2856266 0.0179519 -0.25088215 210
1.5897485 0.022198519 -0.25358841 226
1.8954713 0.026467493 -0.23364061 51
25.290617 0.35314658 -2.2163277 127
40.808201 0.56982702 -2.1732333 28
2.7093151 0.037831634 -0.047754742 31
26.989208 0.37686491 7.2169428 175
31.257261 0.43646207 7.2055182 228
26.158453 0.36526465 5.0817723 100
26.97274 0.37663499 4.2621031 34
26.658508 0.37224719 3.2626619 76
29.753731 0.41546744 2.5999663 12
26.570116 0.3710129 1.4083358 84
26.133507 0.36491632 0.45410758 54
0.1 0.1 0.1 -1
0.1 0.1 0.1 -1
1.295491 0.014019109 -0.25279728 194
1.6293087 0.017631505 -0.25988874 72
1.8955451 0.020512573 -0.23364061 45
25.251757 0.27326095 -2.212836 65
40.789818 0.44140553 -2.1721697 28
119.97434 1.298298 -2.1146011 -1
26.845356 0.29050606 7.1781974 197
31.346174 0.33921149 7.2257333 126
27.101801 0.29328117 5.2648306 66
27.033052 0.29253718 4.2714672 44
119.10445 1.2888845 14.576301 -1
29.794735 0.32242265 2.6034482 103
26.291559 0.28451315 1.3935168 31
26.374475 0.28541043 0.4582769 36
0.1 0.1 0.1 -1
0.1 0.1 0.1 -1
1.285714 0.0098737692 -0.25088215 191
1.5701067 0.012057791 -0.25043824 225
1.8856755 0.014481233 -0.23241736 51
25.252489 0.19392902 -2.212836 38
40.781017 0.31318191 -2.171638 24
41.112404 0.31572679 -0.72460335 100
26.739874 0.20535152 7.1497841 130
31.142456 0.2391616 7.178565 77
26.955345 0.20700626 5.2362275 41
26.391821 0.20267862 4.1700258 30
29.479208 0.22638851 3.6076343 41
119.54102 0.91802722 10.445127 -1
26.342251 0.20229794 1.396163 38
26.485222 0.2033959 0.46018782 26
0.1 0.1 0.1 -1
0.1 0.1 0.1 -1
1.2857387 0.0058345376 -0.25088215 181
1.6392624 0.0074387882 -0.26146382 64
1.875787 0.0085121095 -0.23119412 42
25.292822 0.11477597 -2.2163277 52
40.781803 0.18506321 -2.171638 29
41.083199 0.18643092 -0.72407466 66
26.80801 0.12165172 7.1678653 150
27.605843 0.1252722 6.3632274 64
26.90678 0.12209994 5.2266932 39
26.431837 0.11994469 4.1762681 51
25.807209 0.11711021 3.1581984 73
31.519588 0.14303234 2.7540321 38
26.322784 0.11944983 1.3951045 22
26.345753 0.11955405 0.45775571 27
0.1 0.1 0.1 -1
0.1 0.1 0.1 -1
1.3053805 0.0018226563 -0.2547124 191
1.6096522 0.0022475 -0.25673857 228
1.8758044 0.0026191189 -0.23119412 48
25.402637 0.035468794 -2.2259297 61
40.772198 0.056928761 -2.1711063 23
41.053585 0.057321656 -0.72354603 55
26.499119 0.036999773 7.0852089 136
116.93371 0.16327037 26.95331 -1
26.985563 0.037678979 5.2419481 29
26.491348 0.036988925 4.1856322 68
25.737968 0.035937008 3.1496956 66
31.589617 0.044107456 2.7601249 37
26.12331 0.036475047 1.3845195 25
26.375994 0.036827859 0.4582769 44
0.1 0.1 0.1 -1
0.1 0.1 0.1 -1
1.28575 -0.0022440595 -0.25088215 186
1.6392769 -0.0028610807 -0.26146382 64
1.8658786 -0.0032565757 -0.22997087 52
25.502241 -0.044509854 -2.234659 57
40.772175 -0.071160942 -2.1711063 20
40.983574 -0.071529903 -0.72231251 14
26.402498 -0.0460811 7.0593786 131
27.313751 -0.047671538 6.2958441 128
26.857935 -0.046875987 5.2171588 40
26.491333 -0.046236146 4.1856322 28
29.97633 -0.052318618 3.6683688 36
31.539789 -0.05504737 2.7557728 152
26.093338 -0.045541514 1.3829317 32
26.675934 -0.046558335 0.46348852 16
0.1 0.1 0.1 -1
0.1 0.1 0.1 -1
1.2857367 -0.0062833447 -0.25088215 194
1.5800093 -0.0077214441 -0.25201333 227
1.8757839 -0.0091668824 -0.23119412 61
25.29278 -0.12360483 -2.2163277 41
40.771748 -0.19924994 -2.1711063 21
40.873165 -0.19974555 -0.72037411 12
26.32494 -0.12864895 7.0387144 148
27.274488 -0.13328935 6.2868595 123
26.916553 -0.13154013 5.2286 36
26.530567 -0.12965384 4.1918745 65
32.010815 -0.15643559 3.9173808 120
48.863251 -0.23879279 4.2694459 59
26.123024 -0.1276622 1.3845195 35
26.905619 -0.1314867 0.46748412 39
0.1 0.1 0.1 -1
0.1 0.1 0.1 -1
1.2955251 -0.010401365 -0.25279728 188
1.6491014 -0.013240119 -0.2630389 70
1.8856704 -0.015139458 -0.23241736 58
25.222536 -0.20250385 -2.2102172 68
40.760937 -0.3272568 -2.1705744 22
40.852341 -0.32799065 -0.72002167 29
26.334066 -0.21142797 7.0412974 144
27.576004 -0.22139911 6.3564887 92
27.053434 -0.21720356 5.2552962 25
27.014009 -0.21688703 4.2683458 35
119.10758 -0.95627755 14.576301 -1
48.81245 -0.39189988 4.2650938 92
26.801519 -0.21518101 1.4205085 53
26.945065 -0.21633349 0.46817899 39
0.1 0.1 0.1 -1
0.1 0.1 0.1 -1
1.3053004 -0.014580951 -0.2547124 197
1.5898043 -0.017759023 -0.25358841 214
1.8856136 -0.021063382 -0.23241736 50
25.679991 -0.2868602 -2.2503712 64
40.759708 -0.45530924 -2.1705744 26
40.851109 -0.45633021 -0.72002167 25
26.420212 -0.29512888 7.0645447 177
27.068491 -0.30237052 6.2396913 89
27.062433 -0.30230287 5.2572031 28
118.52224 -1.3239613 18.727659 -1
119.104 -1.3304597 14.576301 -1
28.310368 -0.31624299 2.4737544 50
119.82434 -1.3385065 6.351007 -1
26.934254 -0.30087101 0.46800527 76
0.1 0.1 0.1 -1
0.1 0.1 0.1 -1
1.3052481 -0.018681595 -0.2547124 191
1.6391114 -0.023460073 -0.26146382 61
1.8855381 -0.026987098 -0.23241736 43
17.192354 -0.24606863 -1.5066489 108
40.768059 -0.58350009 -2.1711063 39
40.839474 -0.58452219 -0.71984547 24
26.399836 -0.37785232 7.0593786 129
27.077152 -0.38754651 6.2419372 175
27.208584 -0.38942766 5.2858057 84
26.528166 -0.37968907 4.1918745 26
25.219261 -0.36095515 3.0865316 48
28.209625 -0.40375525 2.4650502 127
119.81955 -1.7149385 6.351007 -1
26.76322 -0.3830533 0.46505201 20
0.1 0.1 0.1 -1
0.1 0.1 0.1 -1
1.3149964 -0.022953346 -0.25662753 171
0.1 0.1 0.1 -1
1.8953674 -0.033083759 -0.23364061 53
16.793085 -0.29312438 -1.4717324 1
40.746056 -0.71122509 -2.1700428 27
40.847435 -0.71299458 -0.72002167 40
26.49511 -0.46247387 7.0852089 175
27.027084 -0.47175953 6.2307067 134
26.952036 -0.47044954 5.2362275 62
26.645355 -0.46509638 4.2106023 42
119.09328 -2.0787809 14.576301 -1
119.52634 -2.08634 10.445127 -1
29.364309 -0.5125559 1.5565259 45
26.851856 -0.46870089 0.4666155 46
0.1 0.1 0.1 -1
0.1 0.1 0.1 -1
1.3247306 -0.027286531 -0.25854266 168
1.6389316 -0.033758383 -0.26146382 63
1.8853313 -0.038833674 -0.23241736 41
16.563007 -0.34116146 -1.4516554 127
40.743622 -0.83922887 -2.1700428 43
40.844994 -0.84131688 -0.72002167 26
26.561136 -0.5471009 7.1032901 188
26.772167 -0.55144769 6.172308 112
27.087826 -0.55794954 5.2629237 72
27.325163 -0.56283814 4.3182864 125
26.149338 -0.53861874 3.2007127 114
27.419697 -0.56478536 2.3962865 46
29.492344 -0.60747731 1.5634062 66
26.910229 -0.55429149 0.46765783 58
0.1 0.1 0.1 -1
0.1 0.1 0.1 -1
1.3148263 -0.031215206 -0.25662753 163
1.5993279 -0.037969545 -0.25516349 227
1.8951221 -0.044991974 -0.23364061 44
15.974272 -0.37924418 -1.4001534 48
40.740784 -0.96722436 -2.1700428 34
40.832153 -0.96939355 -0.71984547 33
26.626892 -0.63214737 7.1213713 140
26.585209 -0.63115776 6.129632 110
27.105568 -0.64351153 5.2667375 98
26.918398 -0.63906795 4.2543001 67
31.049555 -0.73714554 3.8007703 1
27.338112 -0.64903241 2.389323 95
28.252377 -0.67073786 1.4977791 36
26.948338 -0.63977879 0.46835274 70
0.1 0.1 0.1 -1
0.1 0.1 0.1 -1
1.324533 -0.035609465 -0.25854266 156
1.6485589 -0.044320755 -0.2630389 65
1.8850501 -0.050678715 -0.23241736 41
15.843544 -0.42594647 -1.3888055 1
16.860012 -0.45327377 -0.89811379 31
40.828903 -1.0976665 -0.71984547 38
26.673059 -0.71709311 7.1342859 186
26.583096 -0.71467441 6.129632 124
27.515556 -0.73974323 5.3468251 74
26.955753 -0.72469312 4.2605429 129
30.679958 -0.8248167 3.7558267 72
27.355856 -0.73544973 2.3910639 17
28.369919 -0.76271236 1.5041301 90
26.156599 -0.70320827 0.45462874 33
0.1 0.1 0.1 -1
0.1 0.1 0.1 -1
1.3146042 -0.039475832 -0.25662753 153
1.6089286 -0.048314009 -0.25673857 223
1.8749611 -0.056302615 -0.23119412 40
15.941701 -0.4787083 -1.3975347 54
16.509159 -0.49574831 -0.87950277 42
28.2129 -0.84719622 -0.49745992 25
26.718958 -0.80233514 7.1472011 228
26.911882 -0.80812842 6.2059994 84
117.74506 -3.5357294 22.882277 -1
26.953342 -0.80937344 4.2605429 47
119.05775 -3.5751479 14.576301 -1
27.403198 -0.822882 2.395416 32
27.179585 -0.81616718 1.4411494 45
26.184244 -0.78627837 0.45514989 73
0.1 0.1 0.1 -1
0.1 0.1 0.1 -1
1.3635211 -0.045232654 -0.26620319 149
1.6482478 -0.054678012 -0.2630389 62
1.8747751 -0.062192693 -0.23119412 41
15.830599 -0.52515507 -1.3879327 1
16.258011 -0.53933376 -0.86620921 52
40.831196 -1.3545102 -0.72002167 66
26.735615 -0.88691169 7.1523671 161
26.617037 -0.88297802 6.1386161 157
27.863565 -0.92432964 5.415472 48
26.753227 -0.88749593 4.2293301 133
119.04594 -3.9491606 14.576301 -1
27.828609 -0.92317009 2.4328444 127
27.236771 -0.90353674 1.4443249 55
119.91592 -3.9780209 2.084656 -1
0.1 0.1 0.1 -1
0.1 0.1 0.1 -1
1.402606 -0.050940976 -0.2738637 127
0.1 0.1 0.1 -1
1.8944072 -0.068802603 -0.23364061 40
119.46317 -4.3387599 -10.474963 -1
16.086588 -0.58424562 -0.85716957 73
40.826736 -1.4827783 -0.72002167 76
26.723043 -0.97054899 7.1497841 203
26.740726 -0.97119123 6.1678157 151
27.683943 -1.0054477 5.3811488 53
27.905209 -1.0134839 4.4119244 47
27.585884 -1.0018864 3.3780577 44
27.964949 -1.0156535 2.4450302 60
26.85458 -0.97532624 1.4242133 82
26.418592 -0.95949167 0.4593192 49
0.1 0.1 0.1 -1
0.1 0.1 0.1 -1
1.4024391 -0.055347133 -0.2738637 122
1.6478717 -0.065033108 -0.2630389 61
1.8644301 -0.073579565 -0.22997087 46
119.44895 -4.7140422 -10.474963 -1
16.024805 -0.6324175 -0.85397911 105
40.831867 -1.6114261 -0.72019792 130
26.777781 -1.0567827 7.1652822 210
116.84287 -4.6111932 26.95331 -1
27.719883 -1.0939627 5.3887758 63
27.79332 -1.0968609 4.3947577 51
27.453665 -1.0834564 3.3622665 25
29.972387 -1.1828576 2.6208568 22
26.941187 -1.0632316 1.4289765 33
119.88857 -4.7313914 2.084656 -1
0.1 0.1 0.1 -1
0.1 0.1 0.1 -1
1.4120643 -0.060170595 -0.27577886 117
1.6081944 -0.068528056 -0.25673857 226
1.8840215 -0.080281541 -0.23241736 43
15.824946 -0.6743294 -1.3879327 95
16.032715 -0.68318284 -0.85451084 92
40.836594 -1.7401206 -0.72037411 49
26.841892 -1.1437812 7.1833634 173
116.8278 -4.9782429 26.95331 -1
26.833626 -1.1434289 5.2171588 32
27.779867 -1.18375 4.3931971 24
27.62863 -1.1773056 3.384131 47
31.202698 -1.3296031 2.7287896 29
27.007553 -1.1508403 1.4326813 74
27.530857 -1.1731393 0.47877601 12
0.1 0.1 0.1 -1
0.1 0.1 0.1 -1
1.4118795 -0.064360008 -0.27577886 96
1.6474438 -0.075098112 -0.2630389 68
1.8639458 -0.084967278 -0.22997087 37
15.822876 -0.72127992 -1.3879327 45
16.020643 -0.73029506 -0.85397911 82
28.495979 -1.2989786 -0.5027464 68
115.80746 -5.2790403 30.996174 -1
26.107599 -1.1901052 6.0240645 96
26.800695 -1.2216997 5.2114382 40
27.795967 -1.2670689 4.3963184 53
27.634932 -1.2597281 3.3853457 22
119.42054 -5.4437408 10.445127 -1
28.799631 -1.3128206 1.5279465 39
27.796934 -1.267113 0.48346648 52
0.1 0.1 0.1 -1
0.1 0.1 0.1 -1
1.3920757 -0.067596778 -0.27194858 82
1.6077595 -0.078070007 -0.25673857 169
1.8735987 -0.090978704 -0.23119412 35
15.820666 -0.76822406 -1.3879327 43
16.028379 -0.7783103 -0.85451084 70
28.422092 -1.3801274 -0.50151289 103
29.816257 -1.4478257 7.9815149 162
116.79621 -5.6714211 26.95331 -1
27.081297 -1.3150208 5.2667375 79
27.890745 -1.3543261 4.4119244 103
27.60133 -1.3402727 3.3817017 40
28.975336 -1.4069921 2.5346844 12
28.745739 -1.3958431 1.5253001 34
25.625935 -1.2443509 0.44576895 32
0.1 0.1 0.1 -1
0.1 0.1 0.1 -1
1.4114473 -0.073229775 -0.27577886 66
1.6568012 -0.08595942 -0.26461399 40
1.8831983 -0.097705521 -0.23241736 40
15.818031 -0.82068306 -1.3879327 45
16.005766 -0.83042324 -0.85344738 50
28.01796 -1.4536489 -0.49446425 75
29.830587 -1.5476931 7.986681 179
116.77676 -6.0587001 26.95331 -1
26.390554 -1.3692147 5.1332574 32
28.556866 -1.4816089 4.5180478 42
27.457956 -1.4245944 3.364696 22
28.821281 -1.4953276 2.5216279 24
28.73098 -1.4906424 1.524771 36
25.571741 -1.3267324 0.44490033 41
0.1 0.1 0.1 -1
0.1 0.1 0.1 -1
1.3622099 -0.074966945 -0.26620319 109
1.617082 -0.088993408 -0.25831366 171
1.8729721 -0.10307589 -0.23119412 40
15.825322 -0.87092018 -1.3888055 42
119.64918 -6.5846925 -6.3809147 -1
27.923403 -1.5367179 -0.49287829 44
30.076376 -1.6552031 8.0538397 151
116.75715 -6.4255347 26.95331 -1
26.366518 -1.4510373 5.1294436 61
118.35055 -6.5132251 18.727659 -1
27.522722 -1.514667 3.3731987 27
28.766706 -1.5831276 2.5172758 25
27.868658 -1.533705 1.4792553 31
25.577431 -1.4076111 0.44507405 56
0.1 0.1 0.1 -1
0.1 0.1 0.1 -1
1.3913485 -0.081199266 -0.27194858 60
1.6463532 -0.096081369 -0.2630389 45
1.87262 -0.10928632 -0.23119412 39
15.822347 -0.92339402 -1.3888055 47
119.62669 -6.9814277 -6.3809147 -1
27.88821 -1.6275592 -0.49234962 128
30.032145 -1.7526795 8.0435076 181
116.7352 -6.8126798 26.95331 -1
26.714355 -1.5590529 5.1980906 62
27.22537 -1.5888758 4.3089223 26
27.567093 -1.6088188 3.3792722 29
119.34149 -6.9647837 10.445127 -1
27.813572 -1.6232034 1.4766091 24
25.672438 -1.4982464 0.44681129 40
0.1 0.1 0.1 -1
0.1 0.1 0.1 -1
1.3127154 -0.080749065 -0.25662753 143
1.6164736 -0.099434137 -0.25831366 162
1.8920798 -0.1163875 -0.23364061 37
15.839254 -0.97431999 -1.3905513 40
119.60416 -7.3572106 -6.3809147 -1
27.87298 -1.7145506 -0.49217343 124
29.515442 -1.8155833 7.9066076 183
116.71322 -7.1793804 26.95331 -1
117.5759 -7.2324467 22.882277 -1
26.549843 -1.6331605 4.2027988 59
28.037449 -1.7246677 3.4375775 45
27.821218 -1.7113665 2.4354556 14
27.778435 -1.7087349 1.4750214 31
25.667603 -1.5788913 0.44681129 24
0.1 0.1 0.1 -1
0.1 0.1 0.1 -1
1.3614429 -0.087801956 -0.26620319 82
1.665445 -0.10740761 -0.26618907 65
1.8521088 -0.11944591 -0.22874762 37
15.846234 -1.0219527 -1.3914243 49
119.5818 -7.7120504 -6.3809147 -1
27.887726 -1.7985307 -0.49252585 132
29.683456 -1.9143406 7.9531016 151
27.432205 -1.7691532 6.3362737 144
117.55392 -7.5812688 22.882277 -1
26.623737 -1.7170137 4.2152843 69
118.86449 -7.6657896 14.576301 -1
27.736486 -1.788777 2.4284923 51
27.793173 -1.7924328 1.4760798 26
119.73315 -7.7218113 2.084656 -1
0.1 0.1 0.1 -1
0.1 0.1 0.1 -1
1.3317984 -0.08985886 -0.26045781 86
1.6355606 -0.11035425 -0.26146382 177
1.8814535 -0.12694508 -0.23241736 44
15.843133 -1.068965 -1.3914243 85
119.5584 -8.0668221 -6.3809147 -1
27.982023 -1.887998 -0.49428803 156
29.677645 -2.0024047 7.9531016 177
30.499107 -2.0578301 7.0460443 131
28.040918 -1.8919717 5.4593296 51
26.795916 -1.8079692 4.2433758 66
27.630585 -1.8642857 3.3889899 1
27.283783 -1.8408864 2.389323 109
27.837549 -1.87825 1.4787261 33
26.086742 -1.7601199 0.4542813 16
0.1 0.1 0.1 -1
0.1 0.1 0.1 -1
1.3314767 -0.094507158 -0.26045781 64
1.6745671 -0.11885944 -0.26776415 41
1.8809988 -0.13351181 -0.23241736 47
15.859179 -1.1256719 -1.3931701 64
119.52951 -8.4841099 -6.3809147 -1
40.761105 -2.8931909 -0.72019792 111
29.795748 -2.1148787 7.986681 226
26.759245 -1.89935 6.1835384 69
30.521278 -2.1663761 5.9436712 78
27.094875 -1.9231727 4.2917557 67
27.614008 -1.9600203 3.3877752 33
27.356686 -1.9417559 2.3962865 8
25.021843 -1.7760305 1.3294774 48
26.070465 -1.850461 0.45410758 52
0.1 0.1 0.1 -1
0.1 0.1 0.1 -1
1.3115971 -0.097238325 -0.25662753 100
1.6249447 -0.12046908 -0.25988874 137
1.8904679 -0.14015427 -0.23364061 47
15.865499 -1.1762259 -1.3940431 96
119.50227 -8.85958 -6.3809147 -1
40.761784 -3.0219705 -0.72037411 126
30.993233 -2.297756 8.3095579 203
26.908632 -1.9949344 6.2194762 165
26.921524 -1.9958901 5.243855 133
27.137951 -2.0119357 4.2995586 44
27.597815 -2.0460286 3.3865604 21
27.320646 -2.0254803 2.3936751 16
25.026098 -1.8553684 1.3300067 36
26.852243 -1.9907539 0.46783155 39
0.1 0.1 0.1 -1
0.1 0.1 0.1 -1
1.3308566 -0.10287115 -0.26045781 54
1.6639414 -0.12861758 -0.26618907 42
1.8801229 -0.14532776 -0.23241736 38
3.4464736 -0.26640189 -0.30290103 1
119.47385 -9.2349634 -6.3809147 -1
40.831841 -3.1561766 -0.72178388 132
30.908806 -2.3891563 8.2888937 159
26.941093 -2.0824642 6.2284608 96
117.4478 -9.0783567 22.882277 -1
118.17712 -9.1347303 18.727659 -1
27.640734 -2.1365442 3.3926339 23
27.343946 -2.1136036 2.3962865 29
26.523544 -2.050189 1.4099236 97
26.646481 -2.0596917 0.46435714 30
0.1 0.1 0.1 -1
0.1 0.1 0.1 -1
1.3207436 -0.1062645 -0.25854266 127
0.1 0.1 0.1 -1
1.8994429 -0.15282555 -0.23486386 40
3.4158306 -0.27483121 -0.30028227 20
119.44424 -9.6102552 -6.3809147 -1
40.911419 -3.2916546 -0.72336984 206
27.020449 -2.1740136 7.2479386 154
26.934418 -2.1670918 6.2284608 179
117.41869 -9.4472837 22.882277 -1
26.051598 -2.0960619 4.1294489 47
31.482643 -2.5330334 3.865149 84
27.287521 -2.1955018 2.3919342 26
119.44582 -9.610383 6.351007 -1
26.699677 -2.148205 0.46539947 93
0.1 0.1 0.1 -1
0.1 0.1 0.1 -1
1.3693269 -0.11426359 -0.26811832 50
1.6729656 -0.13960075 -0.26776415 49
1.8792 -0.15681 -0.23241736 38
3.4050727 -0.28413656 -0.29940936 119
119.4152 -9.9646111 -6.3809147 -1
40.971218 -3.4188466 -0.72460335 146
26.97537 -2.250962 7.2376065 141
116.52882 -9.7237568 26.95331 -1
25.248665 -2.1068769 4.9215961 31
118.11911 -9.8564587 18.727659 -1
31.48488 -2.6272583 3.8663638 27
26.17893 -2.1845028 2.2953169 55
25.594997 -2.1357765 1.3612325 33
26.304594 -2.194989 0.45862433 43
0.1 0.1 0.1 -1
0.1 0.1 0.1 -1
0.1 0.1 0.1 -1
0.1 0.1 0.1 -1
1.8886145 -0.16323966 -0.23364061 42
3.39429 -0.29338053 -0.29853645 20
119.38511 -10.318878 -6.3809147 -1
40.98082 -3.5421174 -0.72495574 141
26.958948 -2.3301575 7.2350235 139
24.688177 -2.1338868 5.7118554 59
25.242302 -2.1817818 4.9215961 35
25.773001 -2.2276518 4.0873117 14
31.882399 -2.7557087 3.9161661 70
24.2568 -2.0966012 2.1273243 10
119.3867 -10.319016 6.351007 -1
119.53621 -10.331939 2.084656 -1
0.1 0.1 0.1 -1
0.1 0.1 0.1 -1
1.368582 -0.12286502 -0.26811832 45
1.6818911 -0.15099247 -0.26933923 42
1.8781776 -0.16861418 -0.23241736 43
3.3436887 -0.30018106 -0.2941719 107
119.35023 -10.714717 -6.3809147 -1
40.948929 -3.6762073 -0.72460335 142
27.03767 -2.4273181 7.2582707 154
24.671261 -2.2148726 5.7096095 175
25.420694 -2.2821534 4.9578266 82
26.729586 -2.3996596 4.2402544 84
30.518677 -2.7398269 3.7497532 52
24.130648 -2.1663389 2.1168792 71
27.838812 -2.4992409 1.4813724 29
26.300241 -2.3611152 0.45879805 29
0.1 0.1 0.1 -1
0.1 0.1 0.1 -1
0.1 0.1 0.1 -1
0.1 0.1 0.1 -1
1.8974034 -0.1763508 -0.23486386 38
3.193943 -0.29685539 -0.28107819 35
119.31599 -11.089614 -6.3809147 -1
40.957088 -3.8066843 -0.72495574 142
30.848728 -2.8671806 8.2837276 177
24.7321 -2.2986813 5.7253323 115
25.198364 -2.3420174 4.9158754 36
118.02097 -10.969251 18.727659 -1
118.60027 -11.023092 14.576301 -1
24.123724 -2.242137 2.1168792 45
27.880539 -2.5913074 1.4840187 38
26.700874 -2.4816656 0.46592063 42
0.1 0.1 0.1 -1
0.1 0.1 0.1 -1
1.3482432 -0.12958357 -0.26428807 48
1.6809092 -0.16155706 -0.26933923 36
1.89684 -0.18231079 -0.23486386 36
3.143414 -0.30212262 -0.27671361 31
119.28056 -11.4644 -6.3809147 -1
40.885212 -3.9295964 -0.72389847 1
30.829952 -2.9631562 8.2811441 210
24.870253 -2.390352 5.7590237 125
25.356997 -2.4371345 4.9482923 88
26.881128 -2.5836232 4.2667851 12
118.56505 -11.395631 14.576301 -1
23.571161 -2.2654927 2.0690057 52
119.28214 -11.464552 6.351007 -1
27.270199 -2.6210177 0.47599646 56
0.1 0.1 0.1 -1
0.1 0.1 0.1 -1
1.3185289 -0.13090946 -0.25854266 132
0.1 0.1 0.1 -1
1.9061341 -0.18924955 -0.23608711 35
3.1226232 -0.31002802 -0.27496779 73
119.24395 -11.839074 -6.3809147 -1
119.39435 -11.854006 -2.1146011 -1
115.36054 -11.453511 30.996174 -1
24.562019 -2.4386272 5.6893945 179
25.534817 -2.5352111 4.9845223 49
26.813904 -2.6622045 4.2574215 99
25.888636 -2.5703397 3.183707 141
23.653149 -2.3483906 2.0768397 126
26.681189 -2.6490278 1.4210378 33
26.734501 -2.6543212 0.46678925 39
0.1 0.1 0.1 -1
0.1 0.1 0.1 -1
1.3766692 -0.14129363 -0.27003345 50
1.6896545 -0.17341669 -0.27091432 50
1.8956231 -0.19455616 -0.23486386 38
3.121578 -0.32038131 -0.27496779 32
119.20404 -12.234436 -6.3809147 -1
40.888824 -4.1966004 -0.7244271 170
27.6196 -2.8347216 7.423584 175
116.32277 -11.938719 26.95331 -1
25.477442 -2.6148624 4.974988 146
26.736147 -2.7440486 4.2464972 39
27.351208 -2.8071752 3.364696 1
23.536221 -2.415626 2.0672648 96
26.60272 -2.7303545 1.417333 35
26.516682 -2.721524 0.46314108 23
0.1 0.1 0.1 -1
0.1 0.1 0.1 -1
0.1 0.1 0.1 -1
1.6498199 -0.17456765 -0.26461399 130
1.9246119 -0.20364344 -0.23853362 43
3.160182 -0.33437929 -0.27845943 39
119.16502 -12.608866 -6.3809147 -1
40.875439 -4.3250356 -0.7244271 157
27.821913 -2.9438403 7.4804101 166
116.28468 -12.304098 26.95331 -1
25.098146 -2.655638 4.9025278 121
26.805975 -2.8363438 4.2589822 135
31.191885 -3.3004174 3.8384256 72
23.746464 -2.5126164 2.0864143 31
24.915749 -2.6363387 1.3278897 43
26.488115 -2.802711 0.46279365 34
0.1 0.1 0.1 -1
0.1 0.1 0.1 -1
1.3757803 -0.14970054 -0.27003345 46
1.7081981 -0.18587135 -0.27406448 51
1.9338659 -0.21042658 -0.23975687 47
3.1789827 -0.34590945 -0.28020528 39
3.4249034 -0.37266842 -0.18345129 1
40.862423 -4.4462962 -0.7244271 156
27.957115 -3.0420518 7.5191555 226
27.734756 -3.0178566 6.4306107 219
25.031603 -2.7237227 4.8910866 1
26.895638 -2.9265509 4.2745886 131
25.123184 -2.7336879 3.0926051 142
23.83794 -2.5938387 2.0951185 38
24.878035 -2.7070129 1.3263019 25
26.390224 -2.8715563 0.46123016 56
0.1 0.1 0.1 -1
0.1 0.1 0.1 -1
0.1 0.1 0.1 -1
1.668383 -0.18654945 -0.26776415 107
1.9628234 -0.21947217 -0.24342661 41
3.1680424 -0.35423315 -0.27933237 29
3.3344667 -0.37284181 -0.17866562 10
40.87886 -4.5708508 -0.72495574 41
115.20975 -12.882125 30.996174 -1
27.37705 -3.061152 6.3497505 166
25.189259 -2.816525 4.9235029 52
26.867203 -3.0041437 4.2714672 20
25.006453 -2.7960846 3.0792434 1
