# .PCD v0.7 - Point Cloud Data file format
VERSION 0.7
FIELDS x y z intensity
SIZE 4 4 4 4
TYPE F F F F
COUNT 1 1 1 1
WIDTH 1387
HEIGHT 1
VIEWPOINT 0 0 0 1 0 0 0
POINTS 1387
DATA ascii
-1.7349037 1.4744315 0.12066913 16
-1.7294576 1.4698031 0.039434742 30
-1.7545274 1.5000975 -0.61922622 50
-1.7475868 1.4941634 -0.53199214 27
-1.7232531 1.4733584 -0.44239524 18
-1.7188245 1.4695721 -0.36069405 13
-1.7501101 1.4963207 -0.28379384 15
-1.7641933 1.5083617 -0.20338887 22
-1.7304983 1.479553 -0.12123738 21
-1.7402804 1.4879165 -0.040353637 18
-11.278425 9.6429033 3.9675102 1
-11.28743 9.6506014 3.4230704 1
-11.333555 9.6900377 2.8965149 1
-11.426456 9.7694674 2.3752916 79
-11.414642 9.759366 1.8378285 1
-1.7339445 1.4824995 0.19932786 129
-1.7305213 1.4795725 0.12066913 16
-1.7326885 1.4814255 0.039608464 24
-1.7492805 1.5062128 -0.61922622 31
-1.7423607 1.5002545 -0.53199214 40
-1.7255373 1.4857689 -0.44431037 16
-1.728651 1.4884499 -0.36384422 26
-1.7523973 1.5088966 -0.28501707 12
-1.7589173 1.5145106 -0.20338887 17
-1.7328904 1.4921002 -0.12176912 12
-1.7274992 1.4874582 -0.040177424 16
-87.849197 75.642288 30.996174 -1
-11.283212 9.7153759 3.4320548 15
-11.299662 9.7295408 2.8965149 15
-11.324919 9.7512884 2.3612459 1
-11.365462 9.7861986 1.8353992 9
-1.72121 1.4820428 0.19845743 20
-1.7329134 1.49212 0.12119839 12
-1.7350836 1.4939886 0.039782185 18
-1.7445399 1.5117009 -0.61922622 45
-1.7450018 1.5121011 -0.53424633 24
-1.7282786 1.49761 -0.44622549 17
-1.7314295 1.5003402 -0.3654193 9
-1.755149 1.5208941 -0.28624034 7
-1.7541507 1.5200289 -0.20338887 7
-1.7432877 1.5106158 -0.12283261 11
-1.7454865 1.5125211 -0.040706072 9
-87.611122 75.917908 30.996174 -1
-88.371475 76.576775 26.95331 -1
-89.024666 77.142792 22.882277 -1
-89.577492 77.621826 18.727659 -1
-90.017174 78.002823 14.576301 -1
-1.7165455 1.4874429 0.19845743 6
-1.735764 1.5040963 0.12172763 14
-1.7379378 1.50598 0.039955907 11
-1.7325027 1.510826 -0.61663526 33
-1.7328999 1.5111724 -0.53199214 41
-1.7013735 1.4836798 -0.44048011 17
-1.7267075 1.5057722 -0.3654193 30
-1.780283 1.5524927 -0.29113334 19
-1.7643828 1.538627 -0.2051347 6
-1.7460595 1.5226482 -0.12336435 7
-1.7407261 1.5179973 -0.040706072 7
-87.372185 76.192764 30.996174 -1
-88.130463 76.854019 26.95331 -1
-88.781876 77.422089 22.882277 -1
-89.333191 77.902855 18.727659 -1
-89.771675 78.285233 14.576301 -1
-1.7418967 1.5190182 0.20193914 26
-1.7385564 1.5161052 0.12225688 14
-1.7256625 1.504861 0.039782185 16
-1.7277478 1.5162613 -0.61663526 47
-1.7281439 1.5166091 -0.53199214 36
-1.7114578 1.5019655 -0.44431037 17
-1.7145461 1.5046757 -0.36384422 13
0.1 0.1 0.1 -1
-1.7520529 1.5375915 -0.20426178 11
-1.7562783 1.5412996 -0.12442784 9
-1.7434635 1.5300535 -0.040882289 11
-87.132393 76.466881 30.996174 -1
-11.095934 9.7377272 3.4028554 227
-11.13368 9.770853 2.8774462 171
-11.173121 9.8054667 2.3487606 227
-11.183201 9.814312 1.8208228 144
-1.7371161 1.524483 0.20193914 46
-1.7412905 1.5281464 0.12278613 10
-1.7284412 1.5168699 0.039955907 12
-1.7374545 1.534469 -0.62181711 30
-1.7306732 1.5284799 -0.53424633 42
-1.6993743 1.5008376 -0.44239524 17
-1.7098106 1.5100547 -0.36384422 26
-1.710981 1.5110883 -0.28134733 9
-1.7397472 1.5364938 -0.20338887 26
-1.7589122 1.5534198 -0.12495958 19
-1.7386482 1.5355232 -0.040882289 8
-86.891731 76.740234 30.996174 -1
-11.028769 9.7402849 3.3916247 226
-11.044066 9.7537966 2.8621914 194
-11.105245 9.807827 2.3409574 226
-11.122554 9.8231144 1.8159641 152
-1.7397851 1.5365273 0.20280956 144
-1.7439659 1.5402195 0.12331539 17
-1.7236673 1.5222925 0.039955907 9
-1.7326254 1.5399199 -0.62181711 49
-1.7185807 1.5274373 -0.53199214 26
-1.6946509 1.506169 -0.44239524 18
-1.697677 1.5088584 -0.36226913 10
-1.7358987 1.5428292 -0.28624034 16
-1.7274655 1.5353339 -0.20251596 5
-1.7316315 1.5390365 -0.12336435 13
-1.7188689 1.5276934 -0.040529855 13
-86.650215 77.012833 30.996174 -1
-10.954412 9.7360439 3.3781481 227
-10.98402 9.7623596 2.854564 219
-11.037463 9.8098574 2.3331544 227
-11.061962 9.8316317 1.8111054 132
-1.7498417 1.5552213 0.20455042 111
-1.7241905 1.5324231 0.12225688 14
-1.711403 1.5210578 0.039782185 12
-1.7205799 1.5389165 -0.61922622 38
-1.7137737 1.5328288 -0.53199214 37
-1.704542 1.5245719 -0.44622549 16
-1.700289 1.5207678 -0.36384422 38
-1.6940552 1.5151923 -0.2801241 7
-1.7152084 1.5341121 -0.20164305 11
-1.7119019 1.5311546 -0.12230087 8
-1.714061 1.5330858 -0.040529855 15
-86.407852 77.284676 30.996174 -1
-10.880193 9.7314329 3.3646715 225
-10.909396 9.7575521 2.8431227 203
-88.347206 79.019272 18.727659 -1
-10.979232 9.820015 1.8026025 138
-1.7449472 1.5607109 0.20455042 191
-1.7268108 1.5444895 0.12278613 14
-1.7140685 1.5330925 0.039955907 24
-1.7157367 1.5443141 -0.61922622 42
-1.7234323 1.5512408 -0.53650057 37
-1.685154 1.5167869 -0.44239524 18
-1.688163 1.5194955 -0.36226913 12
-1.7114171 1.5404261 -0.28379384 14
-1.7029762 1.5328286 -0.20077012 5
-1.7145053 1.5432057 -0.12283261 10
-1.7092363 1.5384631 -0.040529855 9
-86.164627 77.555748 30.996174 -1
-10.798868 9.7199326 3.3489487 214
-10.827615 9.7458067 2.8297749 206
-10.880168 9.7931099 2.312866 227
-10.911439 9.8212566 1.7965291 131
-10.536469 9.4837503 1.238618 223
-1.7293724 1.5565875 0.12331539 14
-1.7166752 1.5451589 0.040129628 23
-1.7180352 1.5561808 -0.62181711 47
-1.7113297 1.550107 -0.53424633 49
-1.6876549 1.5286626 -0.44431037 19
-1.6907002 1.5314209 -0.36384422 39
-1.6845015 1.5258063 -0.2801241 8
-1.7055355 1.5448587 -0.20164305 13
-1.7096487 1.5485843 -0.12283261 8
-1.7043946 1.5438253 -0.040529855 10
-85.920555 77.826065 30.996174 -1
-10.746613 9.7341843 3.3422103 226
-10.775117 9.760004 2.8240542 186
-87.848976 79.572807 18.727659 -1
-10.851105 9.8288326 1.7916702 142
-10.484473 9.4967413 1.2360067 1
-1.7170725 1.5553088 0.12278613 16
-1.7118125 1.5505443 0.040129628 19
-1.727414 1.5745835 -0.6269989 58
-1.7208519 1.568602 -0.53875476 42
-1.6973515 1.5471808 -0.44814062 24
-1.6858808 1.5367249 -0.36384422 9
-1.6870347 1.5377768 -0.28134733 11
-1.6933116 1.5434984 -0.20077012 10
-1.6900153 1.5404936 -0.12176912 8
-1.6847576 1.535701 -0.040177424 8
-85.675629 78.095604 30.996174 -1
-10.658366 9.7153826 3.3242416 186
-10.700872 9.7541285 2.812613 161
-10.738123 9.7880831 2.2956991 225
-10.776158 9.8227539 1.7843821 144
-10.410413 9.4893665 1.2307842 143
-1.719558 1.5674226 0.12331539 18
-1.6995436 1.549179 0.039955907 17
0.1 0.1 0.1 -1
-1.7230951 1.5805862 -0.54100895 54
-1.6852496 1.5458708 -0.44622549 24
-1.6883219 1.548689 -0.3654193 50
-1.6821953 1.5430691 -0.28134733 9
-1.6884543 1.5488104 -0.20077012 8
-1.6925261 1.5525455 -0.12230087 8
-1.6946609 1.5545038 -0.040529855 8
-85.429863 78.36438 30.996174 -1
-10.591887 9.7158833 3.3130109 206
-10.626773 9.7478838 2.801172 179
-10.663647 9.7817087 2.2863352 226
-10.708673 9.8230104 1.7783086 152
-10.343843 9.4883547 1.2264321 125
-1.7146254 1.572817 0.12331539 19
-1.6946683 1.5545105 0.039955907 21
-2.3562212 2.17502 -0.86018032 13
0.1 0.1 0.1 -1
0.1 0.1 0.1 -1
-1.6834482 1.5539855 -0.3654193 14
-1.6773393 1.5483463 -0.28134733 8
-1.6909001 1.5608642 -0.20164305 9
-1.6876403 1.5578551 -0.12230087 8
-1.6897689 1.5598199 -0.040529855 9
-85.18325 78.632378 30.996174 -1
-10.51835 9.7094536 3.2995343 199
-10.574457 9.7612457 2.7954514 223
-10.589316 9.7749624 2.2769713 227
-10.633999 9.8162088 1.7710205 155
-10.270063 9.4802608 1.2212095 126
-1.7096757 1.5781959 0.12331539 26
-1.6971232 1.5666087 0.040129628 15
-2.3489957 2.1828215 -0.86018032 28
-2.3194873 2.1554008 -0.73261631 1
-3.1707175 2.9464126 -0.84457272 1
-1.6855198 1.5662817 -0.36699438 109
-1.6721957 1.5539001 -0.28134733 8
-1.6711198 1.5529004 -0.19989721 9
-1.6824651 1.5634429 -0.12230087 8
-1.6772628 1.5586088 -0.040353637 9
-10.346334 9.6144066 3.7763672 188
-10.42185 9.6845808 3.2793193 158
-10.455737 9.7160702 2.7725692 155
-10.520664 9.7764053 2.2691681 226
-10.54322 9.7973642 1.7613029 130
-10.194783 9.4735775 1.215987 125
-1.711748 1.5906544 0.12384464 24
-1.6919187 1.572228 0.040129628 18
-2.3280172 2.1769962 -0.85499853 12
-2.3554006 2.2026031 -0.74614149 42
-3.2116272 3.0032854 -0.85797864 7
-1.6661652 1.5580792 -0.36384422 3
-1.6673057 1.5591458 -0.28134733 9
-1.6662331 1.5581427 -0.19989721 9
-1.6775451 1.5687208 -0.12230087 9
-1.672358 1.5638703 -0.040353637 9
-10.273742 9.6072731 3.7608693 1
-10.291731 9.624095 3.2478738 1
-10.324781 9.6550016 2.7458732 1
-10.41054 9.7351971 2.252001 1
-10.381889 9.7084045 1.7394385 1
-10.135866 9.4783411 1.2125052 127
-1.7140361 1.6028447 0.12437388 37
-1.6942739 1.5843647 0.040303349 46
-2.3211665 2.1842992 -0.85499853 24
-2.3342791 2.1966386 -0.74163312 5
-3.2021763 3.0133603 -0.85797864 5
-1.6756454 1.5768411 -0.36699438 16
-1.6696271 1.5711777 -0.2825706 11
-1.6758392 1.5770235 -0.20164305 10
-1.6726085 1.5739833 -0.12230087 8
-1.6674367 1.5691165 -0.040353637 10
-84.424522 79.446442 30.996174 -1
-10.28983 9.6830921 3.2568583 13
-10.315845 9.7075729 2.7515938 12
-10.343938 9.7340088 2.2441978 13
-10.380253 9.7681818 1.7442973 1
-10.069764 9.4760017 1.2081531 21
-87.267685 82.121956 6.351007 -1
-1.6965697 1.5965316 0.040477071 65
-2.3072801 2.1849394 -0.85240757 11
-2.3344407 2.21066 -0.74388731 28
-3.1926937 3.0234053 -0.85797864 6
-1.6706833 1.5820975 -0.36699438 5
-1.6574764 1.5695909 -0.28134733 14
-1.6708765 1.5822805 -0.20164305 15
-1.6676555 1.5792302 -0.12230087 9
-1.662499 1.5743471 -0.040353637 11
-84.174522 79.711273 30.996174 -1
-84.905045 80.403061 26.95331 -1
-85.532616 80.99736 22.882277 -1
-86.063751 81.500336 18.727659 -1
-86.486191 81.900368 14.576301 -1
-9.9965448 9.4664907 1.2029306 3
-3.2918503 3.1173043 0.24027976 5
-1.6915456 1.6018536 0.040477071 22
-2.3073964 2.1988404 -0.85499853 20
-2.3204312 2.2112617 -0.74163312 10
-3.1689689 3.0198784 -0.85414839 6
-1.6800027 1.6009635 -0.37014455 8
-1.6597222 1.5816371 -0.2825706 13
-1.6658975 1.5875219 -0.20164305 15
-1.669915 1.5913504 -0.12283261 8
-1.664783 1.5864599 -0.040529855 12
-83.923683 79.975327 30.996174 -1
-84.652031 80.669403 26.95331 -1
-85.277733 81.265671 22.882277 -1
-85.807289 81.770309 18.727659 -1
-86.228462 82.171669 14.576301 -1
-9.9379082 9.4703588 1.1994488 12
-3.3109574 3.1551869 0.24239677 15
-1.6937431 1.6140575 0.040650792 2
-2.3004773 2.2060783 -0.85499853 20
-2.3205047 2.2252841 -0.74388731 23
-3.1736343 3.0434058 -0.85797864 14
-1.7034749 1.6335737 -0.37644488 3
-1.6619085 1.5937129 -0.28379384 19
-1.6680919 1.5996426 -0.20251596 16
-1.6649073 1.5965887 -0.12283261 10
-1.6597908 1.5916821 -0.040529855 9
-83.67202 80.238586 30.996174 -1
-10.127782 9.7121935 3.2343972 219
-10.124704 9.7092428 2.7248976 61
-10.208964 9.7900448 2.2348342 204
-85.969887 82.442162 14.576301 -1
-9.8577757 9.4532671 1.1933558 45
-3.2721989 3.1379261 0.24027976 5
-1.7030971 1.6332114 0.040998235 15
-2.3143857 2.2334156 -0.86277121 12
-2.3275237 2.2460938 -0.74839574 23
-3.1075563 2.9988368 -0.84265757 8
-1.7125463 1.652632 -0.37959504 43
0.1 0.1 0.1 -1
-1.677395 1.6187104 -0.20426178 17
-1.667069 1.6087456 -0.12336435 11
-1.6619768 1.6038316 -0.040706072 11
-83.419533 80.501053 30.996174 -1
-10.048137 9.6965971 3.2186744 223
-10.058833 9.7069187 2.7153635 1
-10.128404 9.7740555 2.2239096 143
-10.156691 9.8013525 1.7272916 143
-9.7921867 9.4496012 1.1890037 115
-3.2551391 3.1412561 0.23975052 6
-86.336838 83.316292 2.084656 -1
-2.3212159 2.2541327 -0.867953 34
-2.3204558 2.2533948 -0.74839574 11
-3.09812 3.0085845 -0.84265757 6
-1.6931772 1.6442446 -0.37644488 4
-3.2182832 3.1252751 -0.55290866 1
-1.679448 1.6309121 -0.2051347 18
-1.6620067 1.6139749 -0.12336435 19
-1.6641029 1.6160105 -0.040882289 13
-83.166222 80.762726 30.996174 -1
-9.9826708 9.6941729 3.207444 186
-9.9930763 9.704278 2.7058291 20
-10.055131 9.7645388 2.2145457 30
-10.090244 9.7986364 1.7212181 136
-9.7338638 9.4525566 1.185522 120
-3.2380905 3.14451 0.23922126 6
-3.1775897 3.0857577 0.076958552 1
-2.7355003 2.6731939 -1.0259982 11
-2.327301 2.2742922 -0.75290412 26
-3.0956726 3.0251625 -0.84457272 5
-1.7021289 1.6633595 -0.37959504 16
0.1 0.1 0.1 -1
-1.6956903 1.6570675 -0.20775343 9
-1.66407 1.6261675 -0.1238961 26
-1.6661688 1.6282185 -0.041058507 17
-82.912086 81.023598 30.996174 -1
-9.9242897 9.6982441 3.1984594 214
-9.9133949 9.6875973 2.6924813 11
-84.772987 82.84211 18.727659 -1
-10.031014 9.8025379 1.7163594 144
-9.6613712 9.4413137 1.1802994 124
-3.2281957 3.1546671 0.23922126 5
-85.811646 83.857117 2.084656 -1
-2.7546351 2.7088633 -1.0363618 25
-2.3340378 2.2952547 -0.75741255 5
-3.0861535 3.034873 -0.84457272 8
-1.6828128 1.6548506 -0.37644488 3
-3.2127361 3.1593523 -0.55535519 4
-3.4448779 3.3876364 -0.42336309 1
-1.673193 1.6453906 -0.12495958 14
-1.6681744 1.6404554 -0.041234724 58
-82.657135 81.283676 30.996174 -1
-9.8451376 9.6815472 3.1827366 206
-9.8479156 9.6842794 2.6829469 12
-9.9231539 9.7582674 2.1989393 60
-9.9647837 9.7992048 1.7102859 145
-9.6174564 9.4576492 1.1785586 143
-3.2111492 3.1577916 0.23869202 5
-3.1723967 3.119683 0.077305995 6
-2.7186503 2.6903286 -1.0259982 10
-2.3268156 2.3025758 -0.75741255 15
-3.0417218 3.0100346 -0.83499706 8
-1.6846249 1.6670753 -0.37801996 17
0.1 0.1 0.1 -1
-3.5121076 3.4755201 -0.43296516 1
-3.7406137 3.7016459 -0.28022853 7
-3.7169039 3.6781831 -0.092161365 1
-82.401367 81.542946 30.996174 -1
-9.7869682 9.6850119 3.1737523 210
-9.7755775 9.6737404 2.6715057 15
-9.8643646 9.7616024 2.1926968 57
-9.8916168 9.7885704 1.7029978 148
-9.5452108 9.4457731 1.173336 140
-3.2012129 3.1678641 0.23869202 5
-85.283066 84.39463 2.084656 -1
-2.7170289 2.7056715 -1.0285891 22
-2.3264737 2.3167491 -0.75966674 8
-2.9766128 2.9641705 -0.81967604 9
-1.6653845 1.6584231 -0.37486979 7
-3.1928222 3.179476 -0.55535519 4
-3.5223482 3.5076246 -0.43558389 10
-3.736042 3.7204251 -0.28076026 3
-3.7620084 3.7462831 -0.093571104 4
-82.144783 81.801414 30.996174 -1
-9.7219696 9.6813307 3.1625216 225
-9.7173147 9.6766958 2.6638782 19
-16.650713 16.581112 3.7127585 70
-9.8326826 9.7915821 1.698139 155
-9.4801941 9.4405661 1.1689839 98
-3.1912448 3.1779053 0.23869202 12
-3.8682969 3.8521271 0.094851851 3
-2.7221603 2.7278676 -1.0337709 14
-2.3329477 2.3378389 -0.76417518 16
-2.9326215 2.9387701 -0.81010038 8
-3.0203865 3.0267189 -0.68201101 4
-3.1828177 3.1894908 -0.55535519 12
-3.5676048 3.5750847 -0.4425672 3
-84.64399 84.821457 -6.3809147 -1
-3.7925959 3.8005476 -0.094628401 4
-81.88739 82.059074 30.996174 -1
-9.6708574 9.6911325 3.1557834 219
-9.6591301 9.6793814 2.656251 17
-16.598539 16.633341 3.7127585 97
-9.7738276 9.7943192 1.6932802 154
-9.4223413 9.4420967 1.1655022 107
-3.9077826 3.9159756 0.29320481 5
-3.8914888 3.8996477 0.095720455 28
-2.713577 2.7364058 -1.0337709 17
-2.3255918 2.3451567 -0.76417518 12
-2.9095526 2.9340301 -0.80627012 7
-3.0108628 3.0361927 -0.68201101 4
0.1 0.1 0.1 -1
-3.5914283 3.6216426 -0.44693178 3
-3.7266552 3.758007 -0.28182375 4
-3.8299196 3.8621402 -0.095861919 12
-81.629196 82.315926 30.996174 -1
-9.6060562 9.6868706 3.1445527 226
-9.5802889 9.6608868 2.6429029 15
-83.461304 84.163452 18.727659 -1
-9.7080631 9.7897358 1.6872067 150
-9.3645735 9.4433565 1.1620204 134
-3.9376502 3.970777 0.29638031 10
-3.8792186 3.911854 0.095720455 8
-2.6909316 2.7316282 -1.0285891 15
-2.3314764 2.3667369 -0.76868355 14
-2.8929191 2.9366703 -0.80435497 8
-3.0215685 3.0672655 -0.68673629 21
-2.9949923 3.0402875 -0.52599722 5
-3.6003718 3.6548223 -0.44955051 9
-3.7422042 3.7987998 -0.28395072 6
-3.8381412 3.8961878 -0.096390568 4
-81.355774 82.586166 30.996174 -1
-16.207212 16.452324 5.3232784 203
-9.5206432 9.6646299 2.6352754 14
-83.181747 84.439751 18.727659 -1
-9.6407175 9.78652 1.6811333 166
-9.2912598 9.431777 1.1567979 130
-3.931469 3.990927 0.29690957 10
-3.8872752 3.9460649 0.096241623 6
-2.6890931 2.7469704 -1.03118 18
-2.3308449 2.3810117 -0.77093774 16
-2.8699472 2.9317169 -0.80052471 7
-2.9981012 3.0626295 -0.68358612 15
-2.9993119 3.0638661 -0.52844369 13
-3.5888722 3.6661153 -0.44955051 4
-3.7721643 3.8533525 -0.28714117 6
-3.8398707 3.9225161 -0.096743003 4
-81.095924 82.841347 30.996174 -1
-9.4751348 9.6790686 3.1220918 225
-9.4627657 9.6664333 2.6276481 15
-82.916061 84.700661 18.727659 -1
-9.5890932 9.7954798 1.6774893 173
-9.2337074 9.4324446 1.1533161 126
-3.9398685 4.0246658 0.29849732 10
-3.8888478 3.9725475 0.096589066 6
-2.6674588 2.7410932 -1.0259982 17
-2.3305647 2.3948991 -0.77319199 16
-2.7585599 2.8347089 -0.77179778 11
-3.0027754 3.0856659 -0.68673629 22
-2.9832864 3.0656388 -0.52722043 10
-3.5849264 3.6838868 -0.45042342 3
-3.7816074 3.8859975 -0.2887364 5
-3.8351886 3.9410577 -0.096919216 5
-9.3381481 9.5959244 3.5800581 77
-9.3512316 9.6093693 3.0906463 1
-9.3998127 9.6592913 2.6181138 14
-9.4512949 9.7121944 2.1411958 11
-9.4561501 9.7171831 1.6592689 1
-9.1778898 9.431242 1.1498345 113
-3.9557672 4.0649648 0.30061433 9
-3.884017 3.9912341 0.096762784 4
-2.4175582 2.4990869 -0.93272567 21
-2.3369966 2.4158082 -0.77770036 16
-2.6068296 2.694741 -0.73158002 9
-2.9524102 3.051976 -0.67728579 21
-2.9741774 3.074477 -0.52722043 9
-3.5601275 3.6801875 -0.4486776 3
-3.777004 3.9043777 -0.28926814 4
-3.8443336 3.973978 -0.097447872 4
-9.2760515 9.588872 3.567143 40
-9.3294544 9.6440763 3.0928922 1
-9.3506355 9.6659718 2.6123931 20
-9.3537598 9.6692009 2.1255894 1
-9.4134741 9.7309294 1.6568395 1
-9.1083069 9.4154711 1.144612 24
-3.9714613 4.1053929 0.30273134 6
-3.8791096 4.0099268 0.096936509 4
-2.321835 2.4169614 -0.89904386 16
-2.335299 2.4309771 -0.77995455 21
-2.5838084 2.6896682 -0.72774976 6
-2.9280565 3.0480201 -0.67413563 13
-2.9496758 3.0705252 -0.52477396 9
-3.5403583 3.6854084 -0.44780469 3
-3.7702701 3.9247396 -0.28979987 3
-3.8373652 3.9945836 -0.097624086 3
-80.311569 83.601967 30.996174 -1
-81.008568 84.327522 26.95331 -1
-9.282835 9.6631565 2.602859 29
-9.3336363 9.7160397 2.1287107 38
-82.517151 85.897911 14.576301 -1
-9.04778 9.4184713 1.1411302 4
-3.9640245 4.1264324 0.30326059 5
-3.8720152 4.0306535 0.097110227 4
-2.3208997 2.4312301 -0.90163481 12
-2.5160151 2.6356208 -0.8430723 32
-2.5753458 2.697772 -0.72774976 9
-2.9184663 3.0572038 -0.67413563 6
-2.9468682 3.0869558 -0.52599722 8
-3.5081267 3.6748953 -0.44518593 4
-3.7648168 3.9437878 -0.29033163 4
-3.8455088 4.0283155 -0.098152734 9
-80.048531 83.853859 30.996174 -1
-80.743248 84.581604 26.95331 -1
-9.225318 9.6638699 2.5952315 25
-81.845161 85.735901 18.727659 -1
-82.246887 86.156723 14.576301 -1
-8.99751 9.4252319 1.1385189 10
-3.9993088 4.1894274 0.30696532 10
-3.8731415 4.0572619 0.09745767 6
-2.3265448 2.4525237 -0.9068166 20
-2.5546587 2.6929896 -0.85885173 5
-2.5601029 2.6987288 -0.72583461 6
-2.9088476 3.0663574 -0.67413563 10
-2.9234943 3.0817974 -0.52355069 8
-3.4759965 3.6642165 -0.4425672 4
-3.7661536 3.9700851 -0.2913951 3
-3.8397157 4.0476308 -0.098328955 10
-79.784698 84.104927 30.996174 -1
-80.477127 84.834846 26.95331 -1
-9.1611328 9.6571951 2.5856972 24
-81.575409 85.992599 18.727659 -1
-9.2564354 9.757658 1.6459073 142
-8.9335747 9.4173145 1.1341668 38
-4.0617266 4.2816634 0.31278709 7
-3.8672574 4.076664 0.097631395 10
-2.3983312 2.5441575 -0.93790746 43
-2.5395029 2.6939127 -0.85659748 25
-2.5516121 2.7067583 -0.72583461 7
-2.858557 3.0323665 -0.66468513 12
-2.9069903 3.0837448 -0.52232742 9
-3.4371347 3.6461236 -0.43907556 5
-3.7536626 3.9818974 -0.2913951 4
-3.8338392 4.0669489 -0.098505169 6
-79.520088 84.355164 30.996174 -1
-9.1172276 9.6715841 3.0636928 214
-9.0970812 9.6502123 2.5761628 20
-81.304855 86.248451 18.727659 -1
-9.2257357 9.7866898 1.6459073 141
-8.8902779 9.4308357 1.1324259 106
-4.0688047 4.3162012 0.31437483 7
-3.8681481 4.103344 0.09797883 8
-2.5818169 2.7560959 -1.0130436 1
-2.5243666 2.6947672 -0.8543433 28
-2.536386 2.707598 -0.72391945 6
-2.6329772 2.8107095 -0.61428243 4
-2.8972881 3.0928621 -0.52232742 9
-3.3711796 3.5987422 -0.43209225 3
-3.7411346 3.9936702 -0.2913951 5
-3.8210435 4.0789733 -0.098505169 6
-79.254684 84.604568 30.996174 -1
-9.0734749 9.685956 3.0592005 219
-9.046586 9.6572523 2.5704424 22
-81.033493 86.503448 18.727659 -1
-9.1542282 9.7721605 1.6386191 158
-8.8197432 9.4150972 1.1272033 129
-4.075706 4.3508263 0.31596258 8
-3.8894155 4.1519604 0.098847441 9
-2.5994694 2.7924714 -1.0234073 32
-2.5225265 2.7098157 -0.85659748 7
-2.5211797 2.708369 -0.72200435 7
-2.610677 2.8045111 -0.61113226 6
-2.8740325 3.0874197 -0.51988095 8
-3.3259192 3.5728576 -0.42772767 14
-3.5584707 3.8226752 -0.27810153 7
-3.8218353 4.1055942 -0.098857604 6
-78.988503 84.853134 30.996174 -1
-8.9965239 9.6644859 3.0434778 219
-8.9961357 9.6640692 2.5647218 22
-80.761337 86.757599 18.727659 -1
-9.0964308 9.7718105 1.6337603 157
-8.76297 9.4135914 1.1237217 131
-4.0892339 4.3928456 0.31807959 7
-3.9989789 4.2958899 0.10197443 7
-2.5644491 2.7722633 -1.0130436 17
-2.5007694 2.7034233 -0.85208911 12
-2.5059938 2.7090712 -0.7200892 6
-2.5884418 2.7982006 -0.6079821 6
-2.8508399 3.0818622 -0.51743448 6
-2.8614469 3.0933287 -0.36924246 4
-3.51932 3.8045137 -0.27597457 6
-3.8224974 4.1322598 -0.099210039 7
-78.721535 85.100861 30.996174 -1
-8.9462671 9.6712418 3.0367396 206
-8.9257355 9.6490469 2.5532806 16
-15.366573 16.61183 3.5754225 85
-9.0387259 9.7711935 1.6289016 154
-8.7130585 9.419136 1.1211104 129
-4.0957561 4.4276624 0.31966734 8
-4.0058317 4.330451 0.10249559 8
-2.5361178 2.7589738 -1.005271 15
-2.492264 2.7112663 -0.85208911 20
-2.4974706 2.7169306 -0.7200892 6
-2.5863214 2.8135889 -0.60955721 6
-2.8411438 3.0908031 -0.51743448 8
-2.8449731 3.0949688 -0.36836955 7
-3.4938345 3.8008478 -0.27491108 6
-3.8230295 4.1589699 -0.099562474 8
-78.453796 85.347755 30.996174 -1
-8.8960562 9.6777773 3.0300012 225
-8.8688049 9.6481323 2.5456533 18
-80.21463 87.263321 18.727659 -1
-8.9743967 9.7630033 1.6228281 156
-8.6429739 9.4024572 1.1158878 103
-4.1088581 4.4699149 0.32178435 8
-4.0192733 4.3724585 0.10319047 7
-2.5269549 2.7673688 -1.005271 9
-2.4832594 2.719516 -0.85208911 21
-2.4818292 2.7179496 -0.7181741 6
-2.576977 2.8221498 -0.60955721 6
-2.8174939 3.0855496 -0.51498795 5
-2.8212595 3.0896735 -0.36662373 6
-3.4677444 3.7976646 -0.27384761 5
-3.8294427 4.1937752 -0.10009112 6
-78.170341 85.607445 30.996174 -1
-8.844202 9.6856375 3.023263 227
-8.8169041 9.6557417 2.5399327 12
-79.92482 87.528847 18.727659 -1
-8.9152002 9.7633896 1.6179694 175
-8.584877 9.4016399 1.1124061 113
-4.1411476 4.5351353 0.3254891 10
-4.0384617 4.4226799 0.10405908 7
-2.5117581 2.7681408 -1.0026801 13
-2.4747036 2.727304 -0.85208911 11
-2.4732783 2.725733 -0.7181741 6
-2.5614624 2.8229184 -0.6079821 5
-2.8077865 3.0943856 -0.51498795 8
-2.8115392 3.0985215 -0.36662373 3
-3.4423759 3.7937496 -0.27278411 6
-3.8431239 4.2354031 -0.10079599 6
-77.901009 85.8526 30.996174 -1
-78.577087 86.597694 26.95331 -1
-8.7601404 9.654314 2.5323052 14
-79.649445 87.779503 18.727659 -1
-80.04039 88.210358 14.576301 -1
-80.331444 88.531113 10.445127 -1
-4.6569991 5.1323533 0.36729991 9
-4.044704 4.4575591 0.10458025 7
-2.4841266 2.754065 -0.99490738 26
-2.4600751 2.7274001 -0.84983492 14
-2.458606 2.7257714 -0.71625894 6
-2.5596895 2.8378389 -0.60955721 5
-2.7985928 3.1027029 -0.51498795 6
-2.8023334 3.1068497 -0.36662373 8
-3.377598 3.7446258 -0.26853016 7
-3.8372369 4.2542114 -0.10097221 7
-7.6545954 8.4863844 3.0557063 1
-7.6622877 8.4949121 2.6369321 1
-7.7517977 8.5941496 2.2481837 5
-7.7403932 8.5815058 1.8259468 1
-7.7451448 8.5867739 1.4151158 1
-80.068413 88.769073 10.445127 -1
-4.5681782 5.0645809 0.36147815 7
-4.0515509 4.4918137 0.10510141 9
-2.4630487 2.747041 -0.98972553 12
-2.451972 2.7346873 -0.84983492 23
-2.4505076 2.7330542 -0.71625894 7
-2.5446658 2.8380687 -0.6079821 5
-2.7827492 3.1036034 -0.51376468 6
-2.7798023 3.1003168 -0.36487788 4
-3.3464739 3.7323263 -0.26693493 4
-3.8579712 4.3027997 -0.10185329 4
-7.6293821 8.509059 3.0557063 16
-7.6500592 8.5321198 2.6414244 1
-7.7328176 8.6244202 2.2500906 10
-7.7017093 8.5897255 1.8228256 1
-7.7726436 8.6688385 1.4248333 3
-7.7876062 8.6855268 1.0192704 4
-4.5264659 5.0483727 0.35936114 8
-4.0582294 4.5261483 0.10562257 6
-2.4534447 2.7556219 -0.98972553 25
-2.4294541 2.7286766 -0.84532648 5
-2.4344261 2.7342608 -0.71434385 5
-2.5413103 2.8543093 -0.60955721 5
-2.7718985 3.1132979 -0.51376468 7
-2.7623389 3.102561 -0.36400497 4
-3.3334253 3.7439847 -0.26693493 6
-3.8495767 4.3237081 -0.1020295 8
-7.5739374 8.5067778 3.0453742 18
-7.6396694 8.5806055 2.6481626 21
-7.6634994 8.6073704 2.2386494 8
-7.678247 8.6239338 1.8243862 9
-7.7159343 8.6662636 1.4199746 3
-7.7307429 8.6828957 1.0157887 4
-4.4424124 4.9895597 0.35406864 8
-4.0623517 4.5626893 0.10614374 7
-2.412776 2.7271471 -0.976771 25
-2.4208698 2.7362955 -0.84532648 24
-2.4258242 2.7418954 -0.71434385 7
-2.5323305 2.8622792 -0.60955721 6
-2.5911167 2.9287248 -0.48196024 13
-2.7591791 3.1186848 -0.36487788 10
-3.3216467 3.7544386 -0.26693493 6
-3.8359745 4.3357801 -0.1020295 8
-7.5279713 8.5088234 3.0376251 19
-7.5868473 8.5753708 2.6391783 19
-7.6169071 8.6093473 2.2329288 9
-7.6511159 8.6480131 1.8243862 8
-7.6557851 8.6532907 1.4139011 3
-7.6902246 8.6922178 1.0140479 5
-4.393631 4.9660964 0.3514224 8
-4.0744982 4.6053824 0.10683862 7
-1.9577938 2.2269418 -0.79540771 48
-2.4058287 2.7365704 -0.8430723 18
-2.4236786 2.7568741 -0.71625894 6
-2.5102856 2.8553872 -0.60640705 4
-2.5163727 2.8623111 -0.46972772 8
-2.736213 3.1123743 -0.36313206 11
-3.303242 3.7573557 -0.2664032 5
-3.8553421 4.3853559 -0.10291059 10
-7.4820671 8.5106649 3.029876 17
-7.5341339 8.56989 2.6301937 18
-7.5638962 8.6037436 2.2253013 6
-7.591301 8.6349163 1.816583 7
-7.6154547 8.6623898 1.4114717 3
-4.9200292 5.5964103 0.65107965 14
-4.3846011 4.9873743 0.35195163 7
-4.0666118 4.6256695 0.10701235 7
-1.9380794 2.2185335 -0.79022592 1
-2.3972197 2.7441149 -0.8430723 29
-2.4085486 2.7570829 -0.71434385 6
-2.5077996 2.8706965 -0.6079821 8
-2.5073678 2.8702023 -0.46972772 9
-2.7329757 3.1284573 -0.36400497 7
-3.284852 3.7601941 -0.26587147 5
-3.8810141 4.4426255 -0.10396789 9
-7.4362259 8.5123024 3.0221269 15
-7.4879408 8.5715008 2.6234555 18
-7.5174546 8.6052856 2.2195809 6
-7.5381427 8.6289673 1.8103405 6
-7.5751429 8.6713209 1.4090424 3
-4.8893151 5.5968347 0.64933878 17
-4.5265861 5.1816163 0.36465365 8
-4.0717936 4.6610122 0.10753351 7
-1.943763 2.2391989 -0.79540771 33
-2.3949735 2.7589898 -0.84532648 13
-2.3998749 2.764636 -0.71434385 5
-2.4987688 2.8785608 -0.6079821 7
-2.4853263 2.8630755 -0.46728122 5
-2.7231338 3.1370277 -0.36400497 7
-78.552551 90.491882 -6.3809147 -1
-3.8735924 4.4623466 -0.1041441 8
-7.3841157 8.5064402 3.011795 14
-7.4418125 8.5729065 2.6167171 18
-7.4582081 8.591794 2.2100465 6
-7.478622 8.6153107 1.8025373 4
-7.5153298 8.6575975 1.4029689 3
-7.5361271 8.6815567 1.0044731 3
-4.4906468 5.1731882 0.3630659 7
-4.0636849 4.6813316 0.10770723 6
-1.9177933 2.2233534 -0.78763497 15
-2.3926578 2.7738774 -0.84758067 36
-2.3911779 2.772162 -0.71434385 6
-2.4897132 2.8863966 -0.6079821 4
-2.469837 2.8633537 -0.46605799 8
-2.7067585 3.1380239 -0.36313206 4
-2.7132862 3.1455915 -0.22120506 1
-3.8660851 4.4820647 -0.10432032 26
-7.3384261 8.5076504 3.004046 18
-7.3830199 8.5593491 2.6054866 13
-7.4119444 8.5928822 2.2043259 5
-7.4321647 8.6163244 1.7978554 4
-7.4751277 8.6661329 1.4005395 3
-7.4958029 8.6901016 1.0027323 8
-4.461328 5.1721468 0.36200741 6
-4.0620193 4.7092171 0.10805467 9
-1.9170845 2.2367008 -0.79022592 18
-2.3712509 2.7665861 -0.8430723 11
-2.382457 2.7796602 -0.71434385 6
-2.4742064 2.8867061 -0.60640705 4
-2.4672883 2.8786347 -0.46728122 8
-2.6904039 3.1389482 -0.36225915 4
-77.982422 90.983658 -6.3809147 -1
-3.8519852 4.4941883 -0.10432032 3
-7.2928014 8.5086575 2.9962969 17
-7.337069 8.5603056 2.5987482 17
-7.3593593 8.5863113 2.1966984 5
-7.3857751 8.6171312 1.7931734 4
-7.4220271 8.6594276 1.3956808 4
-7.4490161 8.6909161 1.000121 6
-4.4320598 5.1709728 0.36094889 9
-4.1057658 4.7902789 0.10961816 5
-1.9350979 2.272125 -0.8005895 12
-2.3751817 2.7888563 -0.84758067 24
-2.3737128 2.7871313 -0.71434385 6
-2.4651253 2.894465 -0.60640705 10
-2.4517975 2.8788157 -0.46605799 7
-2.6805294 3.1473846 -0.36225915 4
-2.6740444 3.1397703 -0.21960983 4
-3.8508129 4.5214911 -0.10467276 9
-7.2409797 8.5021076 2.9859648 16
-7.2975035 8.5684757 2.5942562 14
-7.3132534 8.5869694 2.1909781 4
-7.3394537 8.617733 1.7884915 4
-7.3690429 8.6524754 1.3908219 4
-7.3958387 8.683938 0.99663925 5
-4.4028435 5.1696663 0.3598904 6
-4.1101451 4.8259897 0.11013933 7
-1.9345886 2.2852283 -0.8031804 12
-2.3606017 2.7884552 -0.84532648 8
-2.359091 2.7866709 -0.71242869 8
-2.4565265 2.9017663 -0.60640705 10
-2.4432449 2.8860776 -0.46605799 5
-2.6647425 3.1477211 -0.36138624 7
-2.6647167 3.1476905 -0.21960983 6
-3.8438408 4.5405283 -0.10484897 5
-7.2032375 8.5088081 2.9807987 15
-7.2468638 8.5603409 2.5852716 16
-7.2623725 8.578661 2.1833506 5
-7.2947059 8.6168547 1.7838097 4
-7.3305111 8.6591492 1.3883926 3
-7.3571672 8.6906366 0.99489844 4
-4.3810329 5.1750855 0.35936114 7
-4.095808 4.8381639 0.11013933 8
-1.9215809 2.2835681 -0.8005895 19
-2.3523178 2.7954471 -0.84532648 46
-2.3508124 2.7936583 -0.71242869 10
-2.447906 2.9090421 -0.60640705 10
-2.4346712 2.8933141 -0.46605799 7
-2.5335255 3.0107908 -0.34480089 11
-2.6553657 3.1555831 -0.21960983 5
-3.8174767 4.5366125 -0.10449654 4
-7.1468592 8.4931841 2.9678836 16
-7.2026105 8.5594378 2.5785332 15
-7.217926 8.5776377 2.1776299 4
-7.2436686 8.6082296 1.777567 4
-7.285614 8.6580772 1.3847486 4
-7.2992787 8.6743155 0.99054629 4
-4.339941 5.1574984 0.35724413 7
-4.0878725 4.857945 0.11031305 9
-1.9321767 2.3124974 -0.80836225 17
-2.3175583 2.7737358 -0.83630967 21
-2.3284602 2.7867835 -0.70859843 17
-2.4250731 2.9024131 -0.60325688 9
-2.4181931 2.8941789 -0.46483472 6
-2.4527397 2.9355254 -0.33519882 3
-2.6315289 3.1495068 -0.21854633 4
-76.929871 92.07238 -2.1146011 -1
-7.1047807 8.503252 2.9627178 17
-7.1539445 8.5620937 2.571795 16
-7.1690578 8.5801821 2.1719093 4
-7.1882429 8.6031427 1.7713245 4
-7.2298899 8.6529875 1.3798897 3
-7.2497926 8.6768074 0.98793501 3
-4.2962999 5.1419635 0.35512713 7
-4.0644794 4.864512 0.11013933 8
-1.9495806 2.3482811 -0.81872582 15
-2.2963865 2.7660108 -0.8318013 16
-2.3071549 2.7789814 -0.70476818 14
-2.3213239 2.7960479 -0.57963061 41
-2.4027491 2.8941252 -0.46361148 10
-2.4435053 2.9432166 -0.33519882 8
-2.6216216 3.1577585 -0.21854633 4
-3.2252767 3.8848643 -0.088989466 2
-7.0533481 8.4957991 2.9523857 16
-7.1083374 8.5620337 2.5650566 15
-7.1295261 8.5875559 2.1680956 4
-7.1485615 8.6104841 1.7682033 4
-7.1836491 8.6527472 1.3762457 4
-7.1970439 8.6688814 0.98445332 4
-4.2673674 5.140069 0.35406864 7
-4.0427899 4.8695641 0.10996561 8
-1.9483397 2.3618448 -0.82131672 13
-2.2814858 2.765696 -0.82954705 14
-2.2921674 2.7786446 -0.70285302 16
-2.2999601 2.7880914 -0.57648045 9
-2.3241725 2.8174424 -0.45015574 15
-2.4215686 2.9355092 -0.333453 8
-2.6116881 3.1659789 -0.21854633 4
-3.2066936 3.887265 -0.088813245 5
-7.0204754 8.5104637 2.9498026 18
-7.0690022 8.5692892 2.5605645 16
-7.0900192 8.5947666 2.1642818 5
-7.1026187 8.6100407 1.7635213 4
-7.1374812 8.6523018 1.3726016 4
-7.1697745 8.6914492 0.98445332 5
-4.2321348 5.1303406 0.35248089 6
-4.0211096 4.8745279 0.10979188 6
-1.9470329 2.3754239 -0.82390767 21
-2.2789619 2.7803848 -0.8318013 15
-2.2834268 2.7858319 -0.70285302 15
-2.2911899 2.7953031 -0.57648045 26
-2.2964351 2.8017025 -0.446486 12
-2.4060194 2.9353979 -0.33258009 11
-2.5953989 3.166445 -0.2180146 4
-3.1881273 3.8895872 -0.088637032 4
-7.0182009 8.5623627 2.9601347 18
-7.0544004 8.6065273 2.5650566 18
-7.0754285 8.6321821 2.1680956 5
-7.0943193 8.6552296 1.7682033 5
-7.1291409 8.6977119 1.3762457 4
-7.167695 8.7447491 0.98793501 4
-4.2033358 5.1281643 0.3514224 9
-4.0057759 4.8871369 0.10979188 5
0.1 0.1 0.1 -1
-2.2702157 2.7875307 -0.8318013 22
-2.2684655 2.7853816 -0.70093793 16
-2.2699246 2.7871733 -0.57333028 15
-2.2938893 2.8165987 -0.44770923 15
-2.3904951 2.9352179 -0.33170718 13
-2.5854385 3.1745832 -0.2180146 4
-3.1758921 3.8995836 -0.088637032 4
-7.003468 8.5993509 2.9653008 17
-7.0519419 8.6588697 2.5740411 18
-7.073071 8.6848145 2.1757231 5
-7.0858054 8.7004499 1.7728852 5
-7.1331215 8.7585487 1.3823191 3
-7.1653509 8.7981215 0.99141669 4
-4.1745925 5.1258583 0.35036388 6
-3.9904027 4.8996973 0.10979188 6
-1.0936241 1.3514776 -0.46636283 78
-2.2614474 2.7946489 -0.8318013 139
-2.265878 2.8001242 -0.70285302 15
-2.2735813 2.8096437 -0.57648045 16
-2.272543 2.8083606 -0.44526273 16
-2.3749955 2.9349694 -0.33083427 10
-2.569171 3.1749272 -0.21748285 4
-2.5849903 3.1944764 -0.07242509 9
-7.006803 8.6588593 2.9782157 19
-7.0430937 8.7037067 2.5807793 17
-7.0642772 8.7298851 2.1814437 5
-7.0770779 8.7457037 1.777567 5
-7.1305466 8.811779 1.3871779 4
-7.1627417 8.8515654 0.99489844 4
-4.145905 5.1234221 0.34930539 8
-3.9687006 4.9044366 0.10961816 4
-1.0833209 1.3473794 -0.46377191 41
-1.1232759 1.3970734 -0.41477352 137
-2.2447698 2.7919304 -0.69902277 17
-2.2585554 2.8090765 -0.5749054 16
-2.2637091 2.8154862 -0.44526273 16
-2.3657632 2.9424162 -0.33083427 22
-2.5591838 3.1829827 -0.21748285 5
-2.5624115 3.1869974 -0.072072655 2
-6.997726 8.7034159 2.9859648 18
-7.052351 8.7713556 2.5942562 19
-7.0675721 8.790287 2.1909781 5
-7.0805135 8.8063831 1.7853702 5
-7.1214871 8.8573437 1.3908219 4
-7.153625 8.897315 0.99750972 3
-4.079731 5.074162 0.34507138 7
-3.9532733 4.9168806 0.10961816 11
-1.0308555 1.2904062 -0.44304469 78
-1.1249622 1.4082073 -0.41702774 15
-2.2298615 2.7913005 -0.69710767 15
-2.2435558 2.8084426 -0.57333028 19
-2.267242 2.8380926 -0.44770923 14
-2.3565078 2.9498339 -0.33083427 13
-2.4432158 3.0583735 -0.20844322 12
-2.5523868 3.1950316 -0.072072655 8
-6.9944677 8.7555485 2.9962969 18
-7.0369244 8.8086948 2.5987482 20
-7.0644298 8.8431253 2.1986053 5
-7.0774727 8.8594522 1.7916129 5
-7.1122117 8.9029379 1.394466 4
-7.1505094 8.9508791 1.0009915 3
-4.0575371 5.0791516 0.34454212 5
-3.9253259 4.9136519 0.10927072 9
-1.0628244 1.3390293 -0.45859012 31
0.1 0.1 0.1 -1
-2.2271833 2.8059795 -0.69902277 30
-2.2285824 2.8077424 -0.57175523 16
-2.2459743 2.8296537 -0.44526273 12
-2.3410358 2.9494197 -0.32996136 12
-2.4025548 3.0269263 -0.2057845 11
-2.5361207 3.1952031 -0.071896441 7
-6.9849448 8.8001795 3.004046 18
-7.0395069 8.8689203 2.6099789 20
-7.0610247 8.8960304 2.2062328 5
-7.0680275 8.9048529 1.7962947 5
-7.1150618 8.9641113 1.4005395 4
-7.1533213 9.0123129 1.0053436 4
-4.1222677 5.1935549 0.3514224 10
-3.9036539 4.918128 0.109097 5
-1.0466508 1.3271937 -0.4534083 86
-1.0557628 1.338748 -0.39448568 1
0.1 0.1 0.1 -1
-2.2197506 2.8147297 -0.57175523 27
-2.2370737 2.8366959 -0.44526273 13
-2.3440957 2.972404 -0.33170718 17
-2.3744829 3.0109363 -0.20418927 8
-2.5260701 3.2031548 -0.071896441 7
-6.9871745 8.8600073 3.0169611 18
-7.0297117 8.9139462 2.6167171 19
-7.0451999 8.9335861 2.2100465 6
-7.0644832 8.9580374 1.8025373 6
-7.1175976 9.0253887 1.406613 4
-7.155817 9.0738525 1.0096956 4
-4.093564 5.1907973 0.35036388 9
-3.8758011 4.9146657 0.10874955 5
-1.0305622 1.3152698 -0.44822648 39
0.1 0.1 0.1 -1
-1.1077812 1.4138218 -0.35046896 1
-2.2169876 2.8294625 -0.57333028 98
-2.2220294 2.8358974 -0.44403949 14
-73.728821 94.097481 -10.474963 -1
-2.3588533 3.0105207 -0.20365754 5
-2.5098281 3.2032046 -0.07172022 7
-6.983139 8.9123325 3.027293 19
-7.0317235 8.9743385 2.6279478 20
-7.0534258 9.002037 2.2214878 5
-7.0667658 9.019062 1.8103405 5
-7.107574 9.0711451 1.4102571 4
-7.1457076 9.119813 1.0123069 4
-4.0649185 5.187911 0.34930539 8
-3.8480089 4.911077 0.10840211 5
-1.026425 1.318501 -0.44822648 83
-1.0293761 1.3222919 -0.38772309 29
0.1 0.1 0.1 -1
-2.2020214 2.8286211 -0.57175523 14
-2.2070127 2.8350325 -0.44281626 14
-2.2335823 2.8691628 -0.31861347 16
-2.3493838 3.0179164 -0.20365754 8
-2.4936106 3.2031839 -0.071544006 4
-6.9847775 8.9723415 3.0402081 20
-7.0274386 9.0271425 2.6369321 22
-7.0492311 9.0551357 2.229115 5
-7.0565996 9.0646009 1.8150223 6
-7.1034307 9.1247587 1.4151158 4
-7.1476197 9.1815214 1.0166591 4
-4.0301976 5.1770167 0.34771764 5
-3.8264194 4.9152522 0.10822839 7
-1.0400051 1.3446391 -0.4559992 60
-1.0132958 1.3101062 -0.38321468 131
-1.0148091 1.3120627 -0.32365713 26
-2.1870825 2.8277137 -0.57018012 47
-2.2041674 2.8498027 -0.44403949 17
-2.2489364 2.9076853 -0.32210511 8
-2.3398912 3.0252824 -0.20365754 8
-2.4835353 3.2110021 -0.071544006 4
-6.9801974 9.0248079 3.0505402 19
-7.0169291 9.072299 2.6436706 20
-7.0447717 9.1082973 2.2367425 6
-7.0643458 9.133605 1.8243862 6
-7.111166 9.1941385 1.4224039 4
-7.1492138 9.2433319 1.0210112 4
-4.0200229 5.1975513 0.34824687 8
-3.8048415 4.9193397 0.10805467 5
-1.0298905 1.3402412 -0.4534083 63
-1.0091749 1.3132831 -0.38321468 42
-0.99872136 1.2996793 -0.31982687 36
-2.1902225 2.8502312 -0.57333028 48
-2.1891561 2.8488436 -0.44281626 16
-2.2458603 2.9226353 -0.32297805 15
-2.3182063 3.0167823 -0.20259404 8
-2.461251 3.2029324 -0.071191572 5
-6.9812427 9.0849924 3.0634553 19
-7.0299554 9.148385 2.6593933 20
-7.0460291 9.1693029 2.2462769 5
-7.0657096 9.1949129 1.8321894 6
-7.1064386 9.2479162 1.4272628 4
-7.1444197 9.2973423 1.024493 4
-3.9732516 5.1705642 0.34560063 9
-3.7771838 4.9154124 0.10770723 5
-1.0195808 1.335971 -0.45081741 46
-0.99299306 1.3011327 -0.37870628 90
-0.98845148 1.2951818 -0.31791171 24
-1.0065041 1.3188362 -0.26461399 126
-2.1676545 2.840308 -0.44036976 23
-2.2482436 2.945905 -0.32472387 15
-2.3021314 3.0165148 -0.20206231 6
-2.4445503 3.2031283 -0.071015358 7
-6.9745212 9.1388121 3.0737872 19
-7.0232272 9.202632 2.6683776 22
-7.0453615 9.231636 2.255811 6
-7.0591493 9.2497015 1.838432 5
-7.0998201 9.3029928 1.4321215 4
-7.1437683 9.3605795 1.0288451 4
-3.9500251 5.1757731 0.34507138 6
-3.754797 4.9199629 0.10753351 7
-0.98620123 1.3006858 -0.43786287 58
-1.0006732 1.3197726 -0.38321468 22
-0.97844768 1.2904598 -0.31599659 45
-0.99042302 1.3062538 -0.26146382 1
-2.1587207 2.8471038 -0.44036976 81
-2.2570338 2.9767675 -0.3273426 13
-2.2926433 3.0237324 -0.20206231 4
-2.3499029 3.099251 -0.068548322 7
-6.9691234 9.1914701 3.0841193 19
-7.0119438 9.2479458 2.6751161 20
-7.0459795 9.2928352 2.2653453 5
-7.0539269 9.3033161 1.8446745 6
-7.1005445 9.3647995 1.438195 4
-7.1444206 9.4226675 1.0331972 4
-3.9277122 5.1801996 0.34454212 8
-3.7332811 4.9237676 0.10735979 7
-0.98211014 1.3037776 -0.43786287 59
-0.98479825 1.3073461 -0.37870628 129
-0.97438878 1.2935272 -0.31599659 33
-0.99225605 1.3172466 -0.2630389 131
-1.0509965 1.395226 -0.21529187 30
-2.2416773 2.9758866 -0.32646969 82
-2.2831328 3.03092 -0.20206231 6
-2.3341389 3.0986321 -0.068372101 3
-6.969276 9.2519007 3.0970345 20
-7.018034 9.3166285 2.6885927 19
-7.0462823 9.3541288 2.2748797 5
-7.0662661 9.3806572 1.855599 5
-7.1009498 9.4267015 1.4442685 4
-7.1387587 9.4768944 1.0366789 3
-3.8933938 5.1685848 0.34295437 7
-2.4424343 3.2423973 0.070530862 5
-0.99537045 1.3300551 -0.44563559 83
-0.99236113 1.3260339 -0.38321468 26
-0.97032022 1.296582 -0.31599659 43
-0.97627926 1.3045447 -0.25988874 34
-0.98119509 1.3111134 -0.20183614 38
-2.2144108 2.9589872 -0.32385096 20
-2.2735996 3.0380776 -0.20206231 6
-2.3184021 3.0979447 -0.068195887 5
-6.9691176 9.3124228 3.1099496 16
-7.0120845 9.3698368 2.697577 17
-7.0462694 9.4155159 2.2844138 5
-7.0604339 9.4344435 1.8618416 4
-7.1010365 9.488698 1.4503419 3
-7.1268578 9.5232019 1.0392902 5
-3.8651705 5.1648006 0.34189588 8
-2.4322362 3.2500544 0.070530862 7
-1.0027125 1.3486776 -0.45081741 95
-0.98819035 1.329145 -0.38321468 186
-0.9603861 1.2917475 -0.31408146 39
-0.97217607 1.3076053 -0.25988874 49
-0.97707129 1.3141894 -0.20183614 19
-71.32412 95.933029 -10.474963 -1
-2.258086 3.0371916 -0.20153056 5
-2.3146238 3.1132367 -0.068372101 4
-6.9513555 9.3497763 3.1151156 15
-6.9942417 9.4074602 2.7020693 10
-7.016655 9.4376059 2.2844138 4
-7.036653 9.4645042 1.8634021 5
-7.0593472 9.4950285 1.4479125 3
-7.0790734 9.5215607 1.0366789 5
-3.8250935 5.1448627 0.33977887 8
-2.4100826 3.2416317 0.070183419 6
-0.99847054 1.3518211 -0.45081741 98
-0.9782216 1.3244061 -0.38096046 66
-0.96215445 1.3026531 -0.31599659 27
-0.97393036 1.3185964 -0.26146382 71
-0.97293782 1.3172525 -0.20183614 35
-0.98247629 1.3301666 -0.14490366 26
-2.2485332 3.0442708 -0.20153056 6
-2.2870109 3.0963655 -0.067843452 4
-6.9047289 9.3482561 3.1073666 17
-6.964653 9.4293861 2.7020693 33
-6.9753065 9.4438105 2.2806003 4
-6.9951482 9.4706736 1.8602809 6
-7.0117912 9.493207 1.4442685 3
-7.0313697 9.5197134 1.0340676 4
-3.7851799 5.1247239 0.33766186 8
-2.3939466 3.2411447 0.070009701 7
-1.0056466 1.3705254 -0.4559992 83
-0.96252871 1.311763 -0.37645206 161
-0.96386373 1.3135824 -0.31791171 44
-0.96394104 1.3136878 -0.25988874 14
-0.95705175 1.3042989 -0.19938964 41
-0.96650594 1.3171834 -0.14315784 1
-2.2330508 3.0432687 -0.20099881 5
-2.2772722 3.1035349 -0.067843452 6
-6.858181 9.3465357 3.0996175 16
-6.9119363 9.419795 2.693085 28
-6.9281816 9.4419346 2.2748797 5
-6.9361434 9.4527845 1.8524777 4
-6.9643164 9.4911795 1.4406244 3
-6.9837475 9.5176611 1.0314564 3
-3.7454309 5.1043859 0.33554485 8
-2.3837523 3.2486494 0.070009701 10
-1.0070254 1.381483 -0.45859012 72
-0.98135871 1.3462722 -0.38546887 52
-0.94816917 1.3007413 -0.31408146 23
-0.94235814 1.2927694 -0.25516349 67
-0.94710314 1.2992789 -0.19816639 43
-0.9682312 1.3282633 -0.14403075 101
-2.223479 3.0502689 -0.20099881 6
-2.2675109 3.1106739 -0.067843452 5
-6.8117123 9.344615 3.0918684 17
-6.8650889 9.4178391 2.6863465 25
-6.8811374 9.4398556 2.2691591 5
-6.8947759 9.4585648 1.8493564 5
-6.922771 9.4969702 1.438195 3
-6.9362078 9.5154028 1.0288451 4
-3.7234943 5.108058 0.33501562 5
-2.3264174 3.1914845 0.068619929 10
-0.98002094 1.3533485 -0.44822648 92
-0.95426774 1.3177849 -0.37645206 144
-0.95559126 1.3196126 -0.31791171 64
-0.94987595 1.3117201 -0.25831366 14
-0.94301671 1.3022479 -0.19816639 38
-0.95236808 1.3151616 -0.14228491 29
-70.282074 97.055214 -6.3809147 -1
-2.251863 3.109684 -0.067667238 5
-6.7653236 9.342495 3.0841193 18
-6.8126073 9.4077902 2.6773622 22
-6.8341746 9.4375744 2.2634385 5
-6.8476472 9.4561787 1.8446745 5
-6.8637929 9.4784746 1.4321215 4
-6.8887515 9.5129414 1.0262338 4
-3.7074287 5.1197305 0.33501562 6
-2.3163795 3.1987774 0.068619929 4
-0.98704493 1.3721018 -0.4534083 76
-0.98425925 1.3682293 -0.38997728 39
-0.94570929 1.3146406 -0.31599659 50
-0.93421686 1.2986649 -0.25516349 69
-0.9273293 1.2890904 -0.19571988 36
-0.94241434 1.3100603 -0.141412 60
-0.94468707 1.3132197 -0.086142354 105
-2.2537601 3.1329761 -0.068019673 26
-6.7190156 9.3401756 3.0763702 16
-6.771637 9.4133253 2.6728699 21
-6.7872944 9.435091 2.2577178 5
-6.8063698 9.461607 1.8415532 5
-6.8281851 9.4919329 1.4309068 4
-6.8413792 9.5102749 1.0236225 3
-3.6913261 5.1313524 0.33501562 5
-2.306319 3.2060387 0.068619929 4
-0.98834509 1.3830541 -0.4559992 58
-0.95729804 1.339608 -0.38096046 167
-0.93586808 1.3096197 -0.31408146 51
-0.92439079 1.2935588 -0.25358841 51
-0.92904538 1.3000723 -0.19694313 27
-0.93250209 1.3049095 -0.14053909 41
-0.94055682 1.3161809 -0.086142354 1
-69.758751 97.617851 -2.1146011 -1
-6.6784058 9.3455181 3.0712042 15
-6.7193685 9.4028397 2.6638854 20
-6.7404976 9.4324074 2.2519972 5
-6.7593827 9.4588346 1.8368714 6
-6.7810183 9.48911 1.4272628 3
-6.805676 9.5236158 1.022752 4
-3.6693814 5.134799 0.33448637 7
-2.2962356 3.2132683 0.068619929 4
-0.96722257 1.3625246 -0.44822648 125
-0.96436393 1.3584977 -0.38546887 26
-0.93743056 1.3205568 -0.31599659 52
-0.93175501 1.3125616 -0.25673857 78
-0.91921145 1.2948915 -0.19571988 22
-0.9226315 1.2997093 -0.13966618 31
-0.93063694 1.3109865 -0.085610606 42
-0.93181068 1.3126401 -0.028370898 9
-6.6378288 9.3506975 3.0660384 17
-6.684155 9.4159575 2.6616392 19
-6.6994667 9.4375267 2.2481837 5
-6.7181983 9.4639139 1.83375 5
-6.7339368 9.4860849 1.4236187 4
-6.7526569 9.5124559 1.0192704 4
-3.6416709 5.1300154 0.33342788 9
-2.2861295 3.2204664 0.068619929 5
-0.97963566 1.3892367 -0.4559992 59
-0.94324762 1.3376343 -0.37870628 186
-0.92762107 1.315474 -0.31408146 42
-0.93331784 1.3235527 -0.25831366 46
-0.9151389 1.2977729 -0.19571988 23
-0.91854382 1.3026015 -0.13966618 20
-0.92075902 1.3057429 -0.085078865 34
-0.92768234 1.3155609 -0.028370898 18
-6.5861506 9.3399239 3.0557063 18
-6.6264629 9.3970909 2.6504087 19
-6.6471562 9.4264374 2.2405562 5
-6.6599722 9.4446115 1.8259468 5
-6.6869416 9.4828577 1.4199746 4
-6.7055163 9.5091982 1.0166591 3
-3.5967627 5.1006255 0.33078161 8
-2.2760007 3.2276325 0.068619929 6
-0.95864254 1.368575 -0.44822648 120
-0.95580924 1.3645301 -0.38546887 25
-0.92911482 1.3264207 -0.31599659 35
-0.92915517 1.3264784 -0.25831366 37
-0.91675144 1.3087705 -0.19694313 43
-0.91444707 1.3054807 -0.13966618 16
-0.90519422 1.2922713 -0.084015377 32
-0.92354482 1.3184688 -0.028370898 40
-6.534606 9.3289185 3.0453742 17
-6.5857272 9.4019003 2.6459165 15
-6.6006141 9.4231529 2.2348356 5
-6.6189346 9.4493074 1.8228256 5
-6.6400332 9.4794283 1.4163305 4
-6.6527476 9.4975796 1.0131774 4
-3.5635333 5.0873628 0.32919386 6
-2.2658496 3.234767 0.068619929 8
-0.98743677 1.4191492 -0.46377191 61
-0.94595331 1.3595289 -0.38321468 211
-0.91933745 1.3212764 -0.31408146 47
-0.92498332 1.3293908 -0.25831366 28
-0.90696675 1.3034972 -0.19571988 43
-0.90465164 1.3001699 -0.13879326 39
-0.90112996 1.2951086 -0.084015377 32
-0.91939819 1.3213637 -0.028370898 27
-6.4942307 9.3335419 3.0402081 17
-6.5394611 9.3985472 2.6391783 16
-6.5541577 9.4196692 2.229115 5
-6.5779333 9.4538393 1.8197043 5
-6.5932126 9.4757986 1.4126865 4
-6.6114979 9.5020781 1.0114366 4
-3.5760505 5.1395178 0.33184013 32
-68.526871 98.487167 2.084656 -1
-0.97199053 1.4063532 -0.45859012 134
-0.95275611 1.3785233 -0.38772309 30
-0.92076236 1.3322322 -0.31599659 37
-0.91518772 1.3241664 -0.25673857 57
-0.9028672 1.3063401 -0.19571988 44
-0.90056258 1.3030056 -0.13879326 58
-0.9027344 1.3061479 -0.084547125 31
-0.91524243 1.3242456 -0.028370898 33
-6.4483986 9.3300562 3.032459 17
-6.4932814 9.3949966 2.6324399 15
-6.51337 9.4240618 2.2253013 4
-6.5313525 9.4500809 1.8150223 5
-6.5464807 9.4719687 1.4090424 3
-6.5702853 9.5064116 1.0096956 4
-2.305126 3.3352396 0.21487573 11
-68.217125 98.701965 2.084656 -1
-0.99489999 1.4492135 -0.47154462 127
-0.93187845 1.3574136 -0.38096046 183
-0.91657251 1.3351183 -0.31599659 39
-0.91661233 1.3351763 -0.25831366 29
-0.89875877 1.3091701 -0.19571988 37
-0.89646459 1.3058283 -0.13879326 70
-0.88167131 1.2842798 -0.082951896 30
-0.90541881 1.3188714 -0.028194683 35
-6.4081202 9.3343391 3.027293 16
-6.452704 9.3992825 2.6279478 14
-6.4670639 9.4201994 2.2195809 4
-6.4904513 9.4542665 1.8119011 5
-6.5054555 9.4761219 1.406613 3
-6.5121965 9.4859409 1.0053436 23
-2.2946365 3.3424649 0.21487573 14
-0.95069391 1.3848211 0.029185185 32
-0.99034226 1.4523319 -0.47154462 132
-0.93858701 1.3764331 -0.38546887 129
-0.91790313 1.3461003 -0.31791171 42
-0.90684974 1.3298905 -0.25673857 94
-0.89464146 1.3119872 -0.19571988 37
-0.89235783 1.3086382 -0.13879326 36
-0.88325816 1.2952936 -0.083483636 25
-0.90127099 1.3217094 -0.028194683 42
-6.3624363 9.3304806 3.0195439 16
-6.4176536 9.4114561 2.6257017 28
-6.4263763 9.4242487 2.2157671 4
-6.4384589 9.441967 1.8056586 4
-6.4588771 9.4719105 1.4029689 3
-6.3645024 9.3335104 0.9870646 2
-2.2728727 3.3331563 0.21381724 12
-0.95760465 1.4043224 0.029532628 11
-0.99660742 1.4714297 -0.47672644 144
-0.92879474 1.3713084 -0.38321468 153
-0.91917372 1.3571037 -0.31982687 51
-0.91928083 1.3572618 -0.26146382 21
-0.89051533 1.3147913 -0.19571988 35
-0.89382863 1.3196832 -0.13966618 33
-0.8847844 1.30633 -0.084015377 36
-0.90832824 1.3410909 -0.028547116 41
-6.3168397 9.3264265 3.011795 16
-6.3607326 9.3912315 2.614471 26
-6.3802228 9.4200077 2.2100465 4
-6.3921471 9.4376135 1.8009766 5
-6.4179559 9.4757185 1.4005395 3
-67.038612 98.978401 10.445127 -1
-2.2679901 3.3485484 0.21434648 10
-0.94758111 1.3990455 0.029358907 12
-0.98119748 1.4585257 -0.47154462 188
-0.9299202 1.3823032 -0.38546887 129
-0.92038423 1.3681283 -0.321742 73
-0.90950018 1.3519495 -0.25988874 149
-0.89192027 1.3258173 -0.19694313 45
-0.88967836 1.3224847 -0.13966618 47
-0.87510222 1.3008177 -0.083483636 42
-0.88736778 1.3190502 -0.028018465 30
-6.2821164 9.3382092 3.009212 23
