# .PCD v0.7 - Point Cloud Data file format
VERSION 0.7
FIELDS x y z intensity
SIZE 4 4 4 4
TYPE F F F F
COUNT 1 1 1 1
WIDTH 1440
HEIGHT 1
VIEWPOINT 0 0 0 1 0 0 0
POINTS 1440
DATA ascii
4.0021195 8.1585264 1.4357873 5
4.0217633 8.1985722 1.1175164 3
4.0363874 8.228384 0.80079311 3
4.054883 8.2660875 0.48796904 3
4.0555577 8.2674637 0.15999734 3
0.84334278 1.7056249 -0.51040822 81
1.558869 3.1527464 -0.81376761 83
1.5617344 3.1585417 -0.68753201 19
1.8076808 3.6559577 -0.65050936 31
2.3182681 4.6885986 -0.64465237 7
2.6712914 5.4025736 -0.52811271 11
2.6644557 5.3887482 -0.32010922 12
3.6427655 7.3673387 -0.14485018 11
3.9821339 8.0536966 2.4022036 9
4.0123744 8.1148567 2.0866354 10
4.0246282 8.1396399 1.7638421 3
4.0364861 8.1636219 1.4389086 4
4.0562987 8.2036915 1.1199458 3
4.0666332 8.2245932 0.80166358 3
4.0896835 8.2712116 0.48902753 3
4.090374 8.2726068 0.16034479 3
0.84869701 1.702967 -0.51040822 75
1.5600747 3.130394 -0.80925924 80
1.5716497 3.1536198 -0.68753201 29
1.8279669 3.6679375 -0.65365952 22
2.3285594 4.6724095 -0.64342916 9
2.6838076 5.3852386 -0.5272398 5
2.6769176 5.3714137 -0.31957749 12
3.6525135 7.3290119 -0.14432153 11
4.0160336 8.0584393 2.4073696 9
4.0465412 8.1196547 2.0911276 8
4.0589366 8.1445274 1.7676558 3
4.0665188 8.1597414 1.4404691 3
4.0820513 8.1909084 1.1199458 3
4.1013384 8.2296085 0.80340439 3
4.1156483 8.2583227 0.48902753 3
4.1208024 8.2686653 0.16051851 3
0.85404283 1.7002925 -0.51040822 61
1.5742744 3.1341834 -0.81151342 58
1.5947655 3.1749787 -0.69327736 38
1.8394811 3.6621768 -0.65365952 47
2.3298621 4.638464 -0.63975936 10
2.7051837 5.3856826 -0.52811271 3
2.689297 5.354054 -0.31904575 11
3.6530812 7.2728276 -0.14344044 12
4.0456662 8.0544157 2.4099526 9
4.0764036 8.1156101 2.0933738 8
4.0889096 8.1405077 1.7695627 3
4.092133 8.146925 1.4404691 4
4.1122189 8.1869135 1.1211604 3
4.1271725 8.2166834 0.80340439 3
4.1505365 8.2631989 0.49008605 3
4.1557345 8.2735481 0.16086596 3
0.8550179 1.6889837 -0.50781727 66
1.5885133 3.1379147 -0.81376761 108
1.5958662 3.1524394 -0.6894471 24
1.8554373 3.6651902 -0.65523463 32
2.3444228 4.6311216 -0.63975936 17
2.7265894 5.3860455 -0.52898568 47
2.7151241 5.3633971 -0.32010922 6
3.6578479 7.2256331 -0.14273557 14
4.0796766 8.0589046 2.4151187 9
4.1062803 8.1114569 2.0956199 9
4.1188974 8.1363802 1.7714696 3
4.1266298 8.1516542 1.4435905 3
4.1468849 8.1916656 1.1235899 3
4.1619639 8.2214537 0.80514526 3
4.1854963 8.2679377 0.49114454 3
4.1862221 8.269372 0.16103968 4
0.86470914 1.6948928 -0.51040822 47
1.5983635 3.1329086 -0.81376761 43
1.5968411 3.1299245 -0.68561685 18
1.8893818 3.7033257 -0.66311002 29
2.3634708 4.6325746 -0.64098263 15
2.7389696 5.3685794 -0.52811271 6
2.7364986 5.3637362 -0.32064098 7
3.6850736 7.2230124 -0.14291179 3
4.1093645 8.0546532 2.4177017 9
4.1406002 8.1158772 2.100112 9
4.1533604 8.1408882 1.7752832 3
4.1567073 8.1474485 1.4451511 3
4.1816211 8.1962814 1.1260192 3
4.1968265 8.2260857 0.80688614 3
4.2205262 8.2725382 0.49220303 3
4.2167244 8.2650862 0.1612134 3
0.85678035 1.6663988 -0.50263548 65
1.5992882 3.1105428 -0.80925924 52
1.6066661 3.1248925 -0.68561685 7
1.9055222 3.7061541 -0.66468513 15
2.3734746 4.6163001 -0.63975936 13
54.660927 106.31302 -10.474963 -1
2.7533357 5.3551126 -0.32064098 13
3.6757445 7.1491561 -0.14167827 4
4.1390662 8.0502949 2.4202845 9
4.1705322 8.111495 2.1023581 9
4.1789155 8.1278 1.7752832 3
4.1913157 8.1519184 1.4482723 3
4.2118883 8.1919317 1.1272339 3
4.2317591 8.2305794 0.80862695 3
4.2510605 8.2681198 0.49273229 3
4.2563844 8.2784739 0.16173457 4
0.86201125 1.6636989 -0.50263548 55
1.6135345 3.1141536 -0.81151342 30
1.6255059 3.1372588 -0.6894471 14
1.9262421 3.7176857 -0.6678353 2
2.3742676 4.5823841 -0.63608962 17
2.7726469 5.351264 -0.52811271 40
2.7701457 5.3464365 -0.32064098 18
3.6751873 7.0931849 -0.1407972 4
4.1732249 8.0544081 2.4254506 9
4.2004771 8.1070051 2.1046042 9
4.2089448 8.1233473 1.7771901 3
4.2169051 8.138711 1.4482723 3
4.246736 8.1962852 1.1296632 3
4.2621784 8.2260895 0.80949742 3
4.2862024 8.2724562 0.49379081 3
4.2593722 8.2206736 0.16086596 12
0.87617421 1.6781062 -0.50781727 43
1.6188006 3.1004329 -0.80925924 54
1.6398965 3.1408372 -0.69136226 14
1.9561943 3.7466311 -0.67413563 5
1.9798249 3.7918901 -0.52722043 9
2.7894447 5.3425269 -0.52811271 13
2.7915502 5.3465595 -0.32117271 22
3.6604323 7.0106993 -0.13938746 2
4.1985083 8.0412569 2.4254506 9
4.2304354 8.1024065 2.1068504 7
4.2480745 8.1361904 1.7829107 4
4.251596 8.1429348 1.4513936 3
4.2770586 8.1917019 1.130878 3
4.2972221 8.2303209 0.81123823 3
4.316792 8.2678022 0.49432003 3
4.2759218 8.1895256 0.16051851 7
0.87244749 1.65825 -0.50263548 68
1.6376055 3.1125762 -0.81376761 29
1.6497556 3.1356697 -0.69136226 16
1.972553 3.7492065 -0.67571068 4
1.9686219 3.7417347 -0.52110422 16
2.8154917 5.3513694 -0.52985859 11
2.7990339 5.3200884 -0.32010922 10
3.7010608 7.0345592 -0.14009233 24
4.2327461 8.0451269 2.4306166 9
4.260406 8.0977001 2.1090965 9
4.2781849 8.1314917 1.7848176 3
4.2817559 8.138279 1.4529543 4
4.3120155 8.1957941 1.1333073 3
4.332334 8.2344122 0.8129791 3
4.3473945 8.2630377 0.49484929 3
4.3062844 8.1849003 0.16069223 5
0.8821767 1.6640344 -0.50522637 40
1.6473759 3.1074162 -0.81376761 80
1.650404 3.1131279 -0.68753201 23
1.9704454 3.7168164 -0.67098546 9
1.9478259 3.6741498 -0.51254147 8
2.8322897 5.3424978 -0.52985859 15
2.820411 5.3200912 -0.32064098 12
3.7278254 7.0317311 -0.14026855 12
4.2670493 8.0488605 2.4357827 10
4.2995176 8.1101046 2.1158347 9
4.3129053 8.1353579 1.7886312 3
4.3211813 8.1509686 1.4576362 4
4.3423915 8.1909761 1.1345221 3
4.3628478 8.2295628 0.81384957 3
4.3592997 8.2228708 0.49326155 9
4.3319769 8.1713314 0.16069223 4
0.87829852 1.6442163 -0.50004458 109
1.6525396 3.093632 -0.81151342 38
1.6694249 3.1252422 -0.69136226 21
1.9728066 3.693187 -0.6678353 13
1.9593589 3.6680121 -0.51254147 8
56.324078 105.44133 -10.474963 -1
2.8371105 5.3112044 -0.32064098 12
3.7498977 7.0199852 -0.14026855 13
4.2968664 8.0439367 2.4383657 9
4.3387489 8.1223421 2.1225731 9
4.3476925 8.1390858 1.7924449 3
4.3607287 8.1634903 1.4623182 3
4.3774562 8.1948042 1.1369514 3
4.38868 8.2158165 0.81384957 3
4.3474708 8.13867 0.48902753 6
4.3340716 8.1135864 0.15982363 3
0.90634722 1.6839734 -0.51299912 41
1.6622504 3.0884252 -0.81151342 131
1.6838865 3.1286247 -0.69327736 25
1.9703588 3.6608839 -0.66311002 22
1.9567614 3.6356201 -0.50887173 9
2.0773518 3.8596749 -0.38408199 1
2.8632474 5.3198514 -0.32170445 13
3.7814102 7.0257783 -0.14062098 11
4.3312731 8.047411 2.4435318 9
4.3642445 8.1086712 2.1225731 10
4.377893 8.1340303 1.7943518 3
4.3863535 8.1497498 1.4623182 4
4.4078836 8.1897526 1.1381661 3
4.3908625 8.1581268 0.80949742 5
4.3493543 8.0810061 0.48638129 5
4.3311081 8.0471048 0.1587813 3
0.1 0.1 0.1 -1
0.1 0.1 0.1 -1
1.6937071 3.1233191 -0.69327736 26
1.9677277 3.628633 -0.6583848 17
1.9634422 3.6207304 -0.50764847 10
2.11796 3.9056723 -0.38931948 35
2.879946 5.3108301 -0.32170445 13
3.8129961 7.0314426 -0.1409734 12
4.3611383 8.0422564 2.4461148 8
4.3943419 8.103487 2.1248193 8
4.4127841 8.137496 1.7981656 3
4.4213524 8.1532955 1.4654394 3
4.4193954 8.1496868 1.1345221 5
4.3927259 8.1005058 0.80514526 4
4.346158 8.0146322 0.48320577 5
4.3325357 7.9895115 0.1579127 4
0.1 0.1 0.1 -1
1.695636 3.1035693 -0.81827605 115
1.7223343 3.1524358 -0.70093793 25
1.9838523 3.6310995 -0.65995985 35
1.9605316 3.5884149 -0.50397873 7
2.1111143 3.8640306 -0.38582781 20
2.9014041 5.3105197 -0.32223621 13
3.8350673 7.0194292 -0.1409734 12
4.4002781 8.0539494 2.4538639 9
4.4291224 8.1067448 2.1293116 8
4.4477406 8.1408215 1.8019793 3
4.4374733 8.1220293 1.4623182 7
4.4164224 8.083499 1.1272339 5
4.3847179 8.0254698 0.7990523 3
4.3378 7.9395947 0.47950104 5
4.3336449 7.9319897 0.15704408 4
0.1 0.1 0.1 -1
1.7335659 3.1494374 -0.8318013 44
1.7274965 3.1384108 -0.69902277 28
1.9904881 3.6161978 -0.6583848 21
1.9622234 3.5648484 -0.5015322 7
2.1136358 3.8399251 -0.38408199 13
2.9325192 5.3276229 -0.32383144 15
3.8667433 7.0248647 -0.14132585 14
4.4302168 8.0485497 2.4564469 8
4.4639664 8.1098633 2.1338036 9
4.4496255 8.0838099 1.7924449 6
4.429626 8.0474758 1.4513936 6
4.4082904 8.0087147 1.118731 4
4.3810859 7.9592915 0.79382974 3
4.338645 7.8821869 0.47685477 5
4.3247929 7.8570213 0.15582804 4
1.7049843 3.0746074 -0.94308925 97
1.7387267 3.1354554 -0.82954705 117
1.7468673 3.1501353 -0.70285302 40
1.9970497 3.6012905 -0.65680969 32
1.973413 3.5586665 -0.5015322 6
2.1305199 3.8419781 -0.3849549 13
2.9540846 5.327117 -0.32436317 17
3.8936422 7.0214262 -0.14150207 13
4.4601655 8.0430403 2.4590299 7
4.4657936 8.0531902 2.1225731 14
4.4416747 8.009697 1.779097 6
4.4213548 7.973053 1.4404691 3
4.4093604 7.9514236 1.1126575 3
4.3770819 7.8932157 0.78860712 4
4.3343291 7.8161192 0.47367927 5
4.3252106 7.7996755 0.15495943 5
1.6957929 3.0355082 -0.93272567 62
1.7628231 3.1554937 -0.83630967 40
1.7663287 3.1617687 -0.70668328 50
2.0035374 3.5863779 -0.65523463 37
1.9797426 3.5437846 -0.50030899 7
2.1280038 3.8091755 -0.38233617 13
2.9854162 5.3439631 -0.3259584 19
3.9156816 7.0091596 -0.14150207 14
4.4712768 8.0036869 2.4512808 19
4.467309 7.9965854 2.1113427 9
4.4428782 7.9528537 1.7695627 6
4.4271116 7.9246311 1.4342266 7
4.4004321 7.876874 1.1041547 4
4.3775649 7.8359408 0.78425503 3
4.3345118 7.7588749 0.47103301 5
4.3204346 7.7336764 0.1539171 4
1.7005838 3.0217485 -0.93013471 94
1.7870624 3.1754112 -0.8430723 76
1.8003215 3.198971 -0.71625894 65
2.0099511 3.5714598 -0.65365952 43
1.9908661 3.5375476 -0.50030899 8
2.1301887 3.7851086 -0.38059035 8
3.02178 5.3693671 -0.32808536 26
3.9474895 7.0142503 -0.14185449 15
4.4584947 7.9222488 2.4306166 15
4.4589548 7.9230676 2.0956199 18
4.4389539 7.8875279 1.7581216 5
4.4180751 7.8504281 1.4233022 4
4.4056835 7.8284097 1.099296 3
4.3728452 7.7700601 0.77903247 4
4.3294797 7.6930041 0.46785751 4
4.3201904 7.6764984 0.1530485 4
1.7243588 3.0415976 -0.93790746 125
1.7778099 3.13588 -0.83405548 106
1.9313759 3.4067552 -0.76413721 31
2.0162911 3.5565372 -0.65208447 50
2.0558124 3.6262488 -0.51376468 16
2.1420696 3.7783978 -0.38059035 13
59.098221 104.24339 -6.3809147 -1
3.9842992 7.0279078 -0.14238314 21
4.4547739 7.857779 2.4151187 13
4.454989 7.8581581 2.0821431 17
4.429822 7.813766 1.7447735 4
4.4086161 7.776361 1.4123777 3
4.4008837 7.7627215 1.0920079 4
4.3726683 7.7129526 0.77468032 4
4.3290019 7.6359296 0.46521127 4
4.3146992 7.6107006 0.15200616 5
1.7482752 3.061327 -0.94568014 164
1.7779897 3.113359 -0.82954705 143
2.0540178 3.5966995 -0.80818522 1
2.0470433 3.5844865 -0.6583848 29
2.0819602 3.645628 -0.51743448 7
4.0312066 7.058867 -0.7122975 8
4.0112157 7.0238619 -0.43071175 1
4.0113168 7.0240383 -0.14255936 8
4.4554839 7.8017998 2.4022036 13
4.4506598 7.7933526 2.0686665 15
4.430007 7.7571888 1.7352393 5
4.4085326 7.7195859 1.4045745 8
4.3907924 7.6885214 1.083505 4
4.3672361 7.6472731 0.76945776 4
4.3232565 7.5702624 0.46203575 5
4.3187542 7.5623784 0.15131128 4
1.7578839 3.0558195 -0.94568014 162
1.7877619 3.1077578 -0.82954705 133
2.0897775 3.6327672 -0.81776088 12
2.0582941 3.578038 -0.6583848 3
2.1082497 3.6648784 -0.52110422 9
4.0632977 7.0634379 -0.71404332 6
59.752029 103.87001 -6.3809147 -1
4.0433345 7.0287352 -0.14291179 1
4.4462514 7.7291465 2.3841224 15
4.4508262 7.7370992 2.057436 16
4.4249859 7.6921792 1.7237982 5
4.4081364 7.6628885 1.3967713 9
4.3951268 7.6402736 1.0786462 4
4.3664017 7.5903392 0.76510561 4
4.3271003 7.5220194 0.45991877 5
4.3125768 7.4967728 0.15026896 5
1.7432634 3.0084972 -0.93272567 116
1.7975163 3.1021261 -0.82954705 132
2.0962591 3.6176918 -0.81584579 9
2.0843778 3.597187 -0.66311002 4
2.1496086 3.7097614 -0.52844369 14
4.0954566 7.0678763 -0.71578914 6
4.0803008 7.0417209 -0.43337047 3
4.0653963 7.0159984 -0.14291179 4
4.4414506 7.6649876 2.3686244 14
4.4457984 7.6724906 2.0439594 13
4.4196 7.6272779 1.712357 5
4.4123797 7.6148171 1.3905288 7
4.3942256 7.5834866 1.0725727 3
4.365253 7.5334868 0.76075345 4
4.3206706 7.4565468 0.45674324 5
4.3110433 7.4399319 0.14940035 5
1.7478377 2.9946642 -0.93013471 79
1.8170751 3.1132925 -0.83405548 129
2.1026666 3.6026115 -0.81393063 9
2.1106019 3.6162074 -0.6678353 2
2.1762612 3.7287052 -0.53211343 19
4.1226625 7.0635791 -0.71666205 20
4.1074367 7.0374918 -0.4339022 3
4.0924573 7.011827 -0.14308801 3
4.4411607 7.6092792 2.3557093 12
4.4404082 7.6079903 2.0304828 15
4.4187984 7.5709653 1.7028227 4
4.3964486 7.5326715 1.3780437 4
4.3880072 7.5182085 1.0652846 3
4.3637905 7.4767165 0.75640136 4
4.3189063 7.3998141 0.454097 5
4.309195 7.3831754 0.14853175 5
1.7474474 2.9725056 -0.92495292 51
1.8564714 3.1579616 -0.84758067 60
2.1139741 3.595988 -0.81393063 7
2.1219521 3.6095588 -0.6678353 8
4.2300649 7.1955767 -1.0287527 1
4.1498814 7.0591803 -0.71753502 26
4.1396465 7.0417705 -0.4349657 3
4.1245995 7.0161743 -0.14344044 3
4.4405646 7.5536485 2.3427942 13
4.4445343 7.560401 2.0214982 11
4.4127126 7.5062704 1.6913816 4
4.4000683 7.4847617 1.3718011 7
4.3864532 7.4616017 1.0592111 4
4.356966 7.4114423 0.7511788 3
4.3218889 7.3517747 0.45197999 5
4.3070331 7.3265042 0.14766313 4
1.7469352 2.9503794 -0.91977113 101
1.871347 3.160497 -0.84983492 37
2.1252608 3.589329 -0.81393063 6
2.0074983 3.3904412 -0.6284582 2
0.1 0.1 0.1 -1
4.182189 7.063252 -0.71928084 4
4.1668363 7.037323 -0.43549743 3
4.1517153 7.0117855 -0.14361666 3
4.4396629 7.4980969 2.329879 12
4.4335108 7.4877067 2.0057755 12
4.4162664 7.4585829 1.6837542 4
4.3983979 7.4284053 1.3639979 4
4.3795295 7.3965383 1.051923 3
4.3599257 7.3634295 0.74769706 4
4.3144374 7.2866044 0.4488045 5
4.3045578 7.2699199 0.14679453 4
1.835348 3.0776036 -0.96122557 148
1.8862568 3.1629701 -0.85208911 114
2.1415536 3.5910645 -0.81584579 6
0.1 0.1 0.1 -1
3.1161625 5.2253375 -0.74985182 7
4.2298698 7.0928583 -0.72364539 14
4.1889243 7.0241981 -0.43549743 4
4.1839652 7.0158825 -0.14396909 3
4.4285603 7.4260316 2.3117981 13
4.4270658 7.4235258 1.9922988 12
4.4044809 7.3856544 1.6704061 4
4.3913584 7.3636498 1.354634 8
4.3773246 7.3401175 1.0458496 3
4.3575249 7.3069158 0.7433449 3
4.3117337 7.2301311 0.44615823 5
4.306891 7.2220111 0.14609964 5
1.8599267 3.0966618 -0.96899831 199
1.8961843 3.1570287 -0.85208911 126
2.0820746 3.4665244 -0.78903395 13
1.977915 3.2931051 -0.61270738 1
3.1172323 5.1899977 -0.74618208 8
4.2623906 7.0966144 -0.72539121 10
4.2572451 7.0880475 -0.44028312 4
4.2162819 7.019846 -0.14432153 7
4.4220228 7.3623924 2.2962999 11
4.4302964 7.3761668 1.9833144 12
4.40239 7.3297043 1.6608719 4
4.3941269 7.3159475 1.3483915 6
4.37992 7.2922931 1.0409908 3
4.3496823 7.24195 0.73812234 4
4.3087182 7.1737471 0.44351199 4
4.2986698 7.1570172 0.14505732 5
1.8446506 3.0494826 -0.95604378 177
1.9111356 3.1593921 -0.8543433 109
2.0116749 3.3255985 -0.75839186 8
0.1 0.1 0.1 -1
3.1181111 5.1547027 -0.74251235 19
4.2537279 7.0320463 -0.72015375 8
4.2743235 7.0660934 -0.43975139 3
4.2797141 7.075006 -0.14573127 4
4.4251299 7.3153996 2.2859678 11
4.4181423 7.3038483 1.9675916 12
4.4050717 7.2822404 1.6532445 4
4.386415 7.2513976 1.3390276 5
4.37712 7.2360325 1.0349174 3
4.3466315 7.1856298 0.73377025 3
4.3105597 7.125998 0.44139498 5
4.295258 7.1007018 0.1441887 4
1.7939218 2.9446912 -0.92495292 126
1.9311892 3.170013 -0.85885173 111
2.0221126 3.3192623 -0.75839186 8
1.9934293 3.2721791 -0.61113226 3
3.1033082 5.0940256 -0.73517281 7
3.1977792 5.2490983 -0.53858769 39
4.2653294 7.0014629 -0.43656093 3
4.2811127 7.0273709 -0.1450264 3
4.4179335 7.2519603 2.2704697 12
4.4207873 7.2566447 1.9586072 12
4.3972845 7.2180653 1.6418033 4
4.3834796 7.1954045 1.3312246 5
4.3688464 7.1713848 1.0276291 3
4.3432698 7.1294007 0.7294181 3
4.3069487 7.0697803 0.43874872 5
4.2967367 7.0530181 0.14349383 3
1.7274009 2.8155518 -0.88608938 1
1.9309487 3.1473217 -0.8543433 127
2.0171325 3.2877955 -0.75264645 6
2.0036993 3.2659006 -0.61113226 15
3.1089158 5.0673323 -0.73272634 19
3.1934159 5.2050619 -0.53509605 2
4.2664156 6.9539819 -0.43443397 3
4.2822542 6.9797974 -0.14432153 3
4.4204865 7.2051077 2.2601378 11
4.4231796 7.2094975 1.9496228 10
4.399405 7.1707463 1.6341759 4
4.3802361 7.139502 1.3234214 5
4.3705916 7.1237822 1.0227704 3
4.3448076 7.0817556 0.72593635 3
4.308249 7.0221677 0.43663174 5
4.2927299 6.9968729 0.14262521 4
1.7514678 2.8347611 -0.89386207 9
1.930585 3.1246636 -0.84983492 30
2.0222924 3.2730927 -0.75073129 6
2.0035684 3.2427876 -0.6079821 5
3.1143866 5.0406537 -0.7302798 8
3.1940439 5.1695795 -0.53247732 11
4.2672462 6.9065638 -0.43230698 3
4.2778835 6.9237804 -0.14344044 3
4.4177113 7.1500921 2.2472227 11
4.4150758 7.1458268 1.936146 18
4.3961124 7.1151342 1.6246417 4
4.3818765 7.0920939 1.3171787 4
4.3668637 7.0677953 1.0166969 3
4.3408527 7.0256968 0.72158426 3
4.2987957 6.9576268 0.43345621 5
4.2936683 6.9493284 0.14193033 4
1.7756723 2.853847 -0.90163481 20
1.9300981 3.1020389 -0.84532648 7
2.02738 3.2583897 -0.74881619 6
2.0085289 3.2280927 -0.60640705 12
3.0987475 4.9802833 -0.72294033 9
3.1839552 5.1172285 -0.52811271 10
4.2625456 6.8507304 -0.42964828 4
4.2784858 6.8763499 -0.14273557 3
4.4095302 7.0869632 2.2317245 10
4.4220595 7.1071005 1.9294077 16
4.3925138 7.0596142 1.6151073 4
4.3728266 7.0279732 1.307815 5
4.3680711 7.0203304 1.0118382 3
4.3365889 6.9697328 0.71723211 3
4.2942548 6.9016938 0.43080997 4
4.2943506 6.9018478 0.14123544 4
1.7743727 2.8318851 -0.89645296 17
1.9398338 3.0959599 -0.84532648 15
2.0323954 3.2436874 -0.74690104 7
2.0081739 3.2050302 -0.60325688 5
3.0985692 4.9452925 -0.71927059 6
3.1894372 5.0903172 -0.52636689 17
4.2628384 6.8034577 -0.42752129 3
4.2735238 6.8205113 -0.14185449 4
4.4112554 7.0403295 2.2213924 13
4.413322 7.0436282 1.9159311 11
4.3886094 7.0041876 1.6055731 4
4.3739061 6.9807205 1.3015723 4
4.3637533 6.9645166 1.0057647 3
4.3320165 6.9138656 0.71287996 3
4.3000097 6.8627825 0.42922223 4
4.2894688 6.8459592 0.14036684 4
0.1 0.1 0.1 -1
1.1437362 1.8127123 -0.49592486 62
2.0478129 3.2455871 -0.74881619 7
2.0235023 3.2070572 -0.60483193 6
3.1034977 4.9187465 -0.71682411 8
3.18415 5.0465722 -0.52287525 9
4.2628765 6.7562504 -0.42539433 3
4.2735887 6.7732282 -0.14114963 4
4.4127312 6.9937553 2.2110605 10
4.4042296 6.9802814 1.9024545 11
4.3896394 6.9571571 1.5979456 4
4.374732 6.9335303 1.2953298 4
4.359128 6.9088001 0.99969125 3
4.3324523 6.8665209 0.70939827 3
4.3002338 6.8154583 0.42710522 4
4.2842779 6.7901697 0.13949823 4
0.1 0.1 0.1 -1
1.1859981 1.8666728 -0.51170433 18
2.0527358 3.2308536 -0.74690104 6
2.0282719 3.1923492 -0.60325688 6
3.1136127 4.9005952 -0.71560085 4
3.1732774 4.9945025 -0.5185107 14
4.2680159 6.7175393 -0.4237991 3
4.2733989 6.7260122 -0.14044476 3
4.4035964 6.930934 2.1955624 11
4.4052343 6.9335113 1.89347 13
4.3851528 6.9019046 1.5884113 4
4.3700075 6.878067 1.2875266 4
4.3541965 6.8531814 0.99361783 3
4.311264 6.7856088 0.70243484 4
4.294848 6.7597718 0.42445895 4
4.2841411 6.7429199 0.13880335 4
1.1659546 1.8224515 -0.58036262 186
1.1708547 1.8301105 -0.50268751 177
2.0575862 3.2161212 -0.74498594 6
2.0276473 3.1693246 -0.60010672 9
3.1450391 4.9158702 -0.71927059 7
3.1728466 4.9593349 -0.51589197 2
4.2890983 6.7040977 -0.4237991 2
4.2729545 6.6788645 -0.13973989 3
4.4045238 6.8845143 2.1852303 10
4.4059892 6.8868046 1.8844856 12
4.3803625 6.8467488 1.5788771 4
4.3649783 6.8227029 1.2797234 4
4.3489585 6.7976627 0.98754436 3
4.3110852 6.7384648 0.69895315 3
4.2945371 6.7125988 0.42234197 4
4.2837501 6.6957383 0.13810846 4
1.1507515 1.7863013 -0.56999898 183
1.1818745 1.8346134 -0.5049417 96
2.0676799 3.2096412 -0.74498594 6
2.0429418 3.1712406 -0.60168177 6
3.1604671 4.9059653 -0.71927059 6
3.1722262 4.9242187 -0.51327318 3
4.3047309 6.6821957 -0.42326736 2
4.2939157 6.6654077 -0.13973989 1
4.4052029 6.8381581 2.1748981 9
4.4012165 6.8319697 1.873255 13
4.3859019 6.808197 1.5731565 4
4.364994 6.7757416 1.2734809 4
4.3380394 6.7339001 0.9802562 3
4.3106532 6.6913891 0.69547141 3
4.2939715 6.6654944 0.42022496 4
4.2831049 6.6486263 0.13741358 8
1.140589 1.758368 -0.5622263 223
1.1823304 1.8227178 -0.50268751 150
2.0670705 3.186661 -0.74115568 6
2.0421464 3.1482372 -0.5985316 6
3.1704631 4.8876858 -0.71804732 6
3.1931016 4.9225864 -0.51414609 3
4.3257022 6.6686387 -0.42326736 2
4.3093934 6.643497 -0.13956368 1
4.4003773 6.7837605 2.1619833 12
4.4014463 6.7854085 1.8642706 7
4.3698735 6.7367353 1.5598085 4
4.3486319 6.7039881 1.2625564 4
4.3375664 6.6869287 0.97539741 3
4.309968 6.644383 0.69198972 3
4.2985878 6.6268382 0.41863722 6
4.2985301 6.626749 0.13723986 8
1.1355443 1.7386031 -0.55704451 188
1.1827232 1.8108375 -0.50043327 107
2.0663371 3.1637166 -0.73732537 7
2.0466268 3.1335382 -0.59695655 7
3.2020843 4.9026299 -0.72171706 5
3.2194455 4.9292116 -0.51589197 4
4.3466311 6.6550164 -0.42326736 2
4.3302431 6.6299257 -0.13956368 1
4.3899708 6.7213731 2.1464851 10
4.3854413 6.714438 1.8485478 12
4.3641763 6.6818795 1.5502743 4
4.3480663 6.6572137 1.2563139 5
4.3368411 6.6400275 0.97053868 3
4.3144779 6.6057882 0.68937844 2
4.3193851 6.6133013 0.41863722 6
4.3193274 6.6132126 0.13723986 8
1.1303867 1.7188873 -0.55186266 142
1.183053 1.7989727 -0.49817908 143
2.0385158 3.0998054 -0.72391945 15
2.0564609 3.1270931 -0.59695655 7
3.2174704 4.8925462 -0.72171706 5
3.2349153 4.9190731 -0.51589197 5
4.367517 6.6413283 -0.42326736 3
4.3455567 6.6079354 -0.13938746 2
4.3898325 6.675262 2.136153 12
4.3797426 6.6599188 1.8373172 10
4.3581777 6.6271267 1.5407399 4
4.34725 6.6105099 1.2500713 4
4.3358641 6.5931969 0.96567988 3
4.3297358 6.5838776 0.68850803 2
4.3346534 6.5913553 0.41810796 8
4.3290944 6.5829024 0.13689241 7
1.1357812 1.7153276 -0.55186266 135
1.1940776 1.8033705 -0.50043327 122
2.0211508 3.0524683 -0.71434385 9
2.060823 3.1123834 -0.59538144 11
3.2383044 4.8906894 -0.72294033 4
3.2558527 4.917192 -0.51676488 9
4.3993855 6.6442266 -0.42433083 3
4.3773346 6.6109238 -0.13973989 2
4.3734474 6.6050534 2.118072 11
4.3791246 6.6136274 1.8283328 11
4.3627172 6.5888476 1.5350194 4
4.3407302 6.5556412 1.2422681 3
4.3510761 6.5712667 0.9644652 2
4.3503981 6.5702429 0.68850803 2
4.3553391 6.5777054 0.41810796 4
4.3607936 6.5859427 0.13723986 6
1.1250917 1.6876419 -0.54408997 134
1.1997372 1.7996104 -0.50043327 116
2.0252862 3.0379369 -0.71242869 8
2.0651128 3.097677 -0.59380639 7
3.2646635 4.8970079 -0.72538686 4
3.2768102 4.9152279 -0.51763779 7
4.4257765 6.6386819 -0.42486259 2
4.4036279 6.6054587 -0.13991611 3
4.3780999 6.5671668 2.110323 11
4.3782592 6.5674057 1.8193485 11
4.3616142 6.542438 1.5273919 4
4.3613038 6.5419722 1.2422681 4
4.3716989 6.5575647 0.9644652 2
4.3654919 6.5482545 0.68763757 2
4.3870606 6.5806079 0.41916645 3
4.3870087 6.5805297 0.13741358 2
1.1357708 1.6921184 -0.54668087 133
1.1999552 1.787743 -0.49817908 117
2.0293503 3.0234101 -0.71051353 8
2.0748341 3.0911741 -0.59380639 7
3.2800319 4.8867273 -0.72538686 5
3.2922356 4.9049091 -0.51763779 5
4.4521761 6.6330361 -0.42539433 3
4.4355021 6.6081953 -0.14026855 3
4.3825579 6.5293164 2.1025739 9
4.3825774 6.529346 1.81261 9
4.3712049 6.5124021 1.5235782 2
4.3763294 6.5200372 1.2407075 3
4.3922782 6.5437984 0.9644652 2
4.3971462 6.5510507 0.68937844 3
4.4188433 6.5833759 0.42022496 3
4.4188046 6.5833187 0.13776103 2
1.1410811 1.6885419 -0.54668087 136
1.2164757 1.8001089 -0.50268751 129
2.0333428 3.0088875 -0.70859843 7
2.079006 3.0764585 -0.59223127 7
3.3064818 4.8928452 -0.72783333 4
3.3132064 4.9027963 -0.5185107 5
4.4785833 6.6272902 -0.42592606 3
4.4674373 6.6107965 -0.14062098 3
4.3760028 6.4754944 2.0896587 10
4.3867002 6.4913239 1.8058717 5
4.3916426 6.4986372 1.5235782 2
4.3912606 6.4980726 1.2391468 4
4.4128146 6.5299673 0.9644652 3
4.4232831 6.5454583 0.69024885 2
4.450686 6.586009 0.42128345 3
4.4506617 6.5859728 0.13810846 2
1.1409471 1.6769633 -0.54408997 138
1.2166445 1.7882233 -0.50043327 109
2.0372646 2.99437 -0.70668328 7
2.0831056 3.0617473 -0.59065622 8
3.3274198 4.8906393 -0.7290566 4
3.3341963 4.9005995 -0.51938361 4
4.5106158 6.6297002 -0.42698956 4
4.4938078 6.6049957 -0.1407972 3
4.3854561 6.4457402 2.0844927 6
4.4070716 6.4775109 1.8058717 5
4.4065146 6.4766922 1.5216714 3
4.4172096 6.4924116 1.2407075 4
4.4444742 6.532485 0.96689457 3
4.4606357 6.5562391 0.69286013 3
4.4769721 6.5802503 0.42181271 3
4.4769545 6.5802245 0.13828218 2
1.1352935 1.6574337 -0.53890812 136
1.2112451 1.7683166 -0.49592486 141
2.0522082 2.9960525 -0.70859843 6
2.0927141 3.0551879 -0.59065622 8
3.3483765 4.88835 -0.7302798 4
3.3552051 4.8983192 -0.52025652 3
4.5709233 6.6731663 -0.43071175 9
4.5201859 6.5990944 -0.1409734 4
4.4111433 6.4399014 2.0870757 7
4.4218926 6.4555945 1.8036256 3
4.4323874 6.4709158 1.5235782 3
4.4431658 6.4866514 1.2422681 4
4.4705839 6.5266795 0.96810931 2
4.4868402 6.5504122 0.69373059 3
4.5032654 6.5743918 0.42234197 4
4.5145555 6.5908742 0.13880335 3
1.1404949 1.6538589 -0.53890812 141
1.2167944 1.7645028 -0.49592486 122
2.0560384 2.9815104 -0.70668328 10
2.0910897 3.0323391 -0.58750606 6
3.3693514 4.8859773 -0.73150307 4
3.3762324 4.8959556 -0.52112943 7
4.6032028 6.6752148 -0.43177524 5
4.5522475 6.6013231 -0.14132585 4
4.425869 6.4180584 2.0844927 8
4.4532156 6.4577146 1.8081179 5
4.4582672 6.4650402 1.525485 4
4.4747372 6.4889235 1.2453893 4
4.502336 6.528945 0.97053868 3
4.5130525 6.5444851 0.694601 3
4.5352354 6.5766535 0.42340046 4
4.540915 6.5848899 0.13897707 3
1.1511931 1.6582018 -0.54149908 139
1.2278879 1.7686744 -0.49817908 118
0.1 0.1 0.1 -1
2.1062374 3.0338669 -0.58908111 8
3.3960047 4.8916736 -0.7339496 4
4.669837 6.7265272 -0.71753502 28
4.6298456 6.6689234 -0.43230698 3
4.6185794 6.6526952 -0.14273557 11
4.4405007 6.3961868 2.0819097 7
4.4790382 6.4516973 1.810364 6
4.4897523 6.4671297 1.5292988 3
4.5007339 6.4829478 1.24695 3
4.5284858 6.522922 0.97175336 3
4.5392714 6.5384583 0.69547141 3
4.5615692 6.5705762 0.42392972 4
4.5729837 6.587018 0.13932452 5
1.1563969 1.654577 -0.54149908 143
1.2222759 1.748837 -0.49367067 92
0.1 0.1 0.1 -1
2.1044438 3.0110464 -0.58593094 33
3.4795825 4.9786 -0.74862856 14
4.6624122 6.6709971 -0.71317041 2
4.6793766 6.6952701 -0.4349657 11
4.6509123 6.6545429 -0.14308801 4
4.4827099 6.4138784 2.0922418 8
4.5104494 6.4535685 1.8148562 7
4.5212941 6.4690852 1.5331125 4
4.5323949 6.4849687 1.2500713 3
4.560328 6.5249348 0.97418272 3
4.5712037 6.5404963 0.69721228 3
4.6165123 6.6053233 0.42710522 10
4.6394768 6.6381817 0.14071429 10
1.1504735 1.6351376 -0.53631723 136
1.2053391 1.7131165 -0.48465386 143
0.1 0.1 0.1 -1
2.1082106 2.9963439 -0.58435589 104
0.1 0.1 0.1 -1
4.6776142 6.6481695 -0.7122975 13
4.6774025 6.6478686 -0.43283874 5
4.6890554 6.6644306 -0.14361666 12
4.5083966 6.4076648 2.0948248 8
4.5419159 6.4553056 1.8193485 7
4.5528927 6.4709063 1.5369263 4
4.5584297 6.478776 1.251632 4
4.5865159 6.5186939 0.97539741 3
4.6146588 6.5586929 0.70069396 5
4.6659718 6.6316228 0.42975146 7
4.6660619 6.6317506 0.14088801 7
1.1444395 1.6157517 -0.53113544 127
1.2050837 1.7013711 -0.48239964 99
0.1 0.1 0.1 -1
2.1176133 2.989706 -0.58435589 127
3.7574687 5.3048997 -0.80122828 12
4.6812029 6.6090541 -0.70967877 43
4.6809487 6.608695 -0.43124351 3
4.6868525 6.6170301 -0.14291179 5
4.5396724 6.4092369 2.0999908 9
4.5734382 6.4569087 1.8238406 8
4.5788732 6.4645815 1.538833 4
4.590179 6.4805441 1.2547532 4
4.6127095 6.5123529 0.97661215 3
4.6755471 6.601069 0.70678699 6
4.7040982 6.6413784 0.43133923 19
4.6926522 6.6252184 0.14106172 8
1.1551172 1.6200125 -0.53372633 131
1.2104229 1.6975769 -0.48239964 141
0.1 0.1 0.1 -1
2.1212621 2.974998 -0.58278078 125
3.7798779 5.3011503 -0.80245155 12
4.6614585 6.5375371 -0.7035684 6
4.6727004 6.5533032 -0.42858478 4
4.6843987 6.5697098 -0.14220692 3
4.5653934 6.4028091 2.1025739 9
4.5993581 6.4504428 1.8260868 8
4.6105576 6.4661503 1.5426468 4
4.6219845 6.4821763 1.2578745 4
4.6792469 6.5624847 0.98632967 11
4.7020454 6.5944591 0.7076574 8
4.7075472 6.6021748 0.42975146 4
4.6960287 6.5860205 0.14054056 4
1.1545688 1.6085291 -0.53113544 124
1.21575 1.6937659 -0.48239964 129
1.3449578 1.8737764 -0.45005575 227
2.1248395 2.9602969 -0.58120573 130
3.8023007 5.2973123 -0.80367482 15
4.6703563 6.5066748 -0.70182252 17
4.6699734 6.5061417 -0.42645782 5
4.6875238 6.5305929 -0.14167827 4
4.5967526 6.4041314 2.1077399 9
4.6252818 6.4438782 1.8283328 9
4.6365728 6.4596086 1.5445536 5
4.6884041 6.5318189 1.2703596 14
4.7114162 6.5638795 0.98875904 5
4.7343574 6.5958405 0.70939827 8
4.7049732 6.554903 0.42763448 4
4.6933746 6.5387444 0.13984567 4
1.1655545 1.6125194 -0.53372633 97
1.22136 1.6897249 -0.48239964 129
1.3339152 1.8454427 -0.44431037 154
2.1346445 2.9532342 -0.58120573 130
3.8140323 5.2766304 -0.80245155 14
4.6627288 6.4507837 -0.69745797 12
4.6681237 6.4582477 -0.42433083 5
4.6740117 6.466393 -0.14062098 6
4.6292825 6.4045119 2.112906 10
4.6637502 6.4521971 1.8350712 9
4.7039728 6.507844 1.5598085 7
4.7100382 6.5162354 1.2703596 2
4.7506013 6.5723529 0.99240309 18
4.727025 6.5397358 0.70504612 3
4.7149844 6.5230784 0.42657596 6
4.6916037 6.4907312 0.13915078 3
1.1649321 1.6010398 -0.53113544 77
1.2381265 1.7016355 -0.48690805 107
1.3281571 1.8253702 -0.44048011 115
2.1439118 2.9465134 -0.58120573 128
3.5736606 4.9115076 -0.74862856 13
4.6536665 6.3958278 -0.69309342 16
4.6648893 6.411252 -0.42220387 5
4.682538 6.4355078 -0.14026855 6
4.660748 6.40556 2.118072 12
4.7298627 6.5005493 1.85304 10
4.7359457 6.5089097 1.5636222 8
69.7369 95.843826 18.727659 -1
4.7420254 6.5172653 0.98632967 1
4.724102 6.4926319 0.70156443 9
4.7178283 6.4840097 0.42498821 7
4.6943235 6.4517055 0.13862963 4
1.1642491 1.5895801 -0.52854455 110
1.2377094 1.6898775 -0.48465386 100
1.3396846 1.8291068 -0.44239524 110
2.1414878 2.92383 -0.57805556 136
3.5597503 4.8602214 -0.74251235 6
4.6619639 6.3651028 -0.6913476 16
4.6732068 6.3804531 -0.42114037 5
4.679101 6.3885002 -0.13956368 5
4.7208071 6.4454427 2.136153 23
4.7617774 6.5013809 1.8575323 25
4.7795725 6.5256772 1.5712496 25
4.7567244 6.4944816 1.2719202 2
70.381432 96.093628 14.576301 -1
4.7209301 6.445611 0.69808269 1
4.708672 6.428875 0.42234197 6
4.6968451 6.4127274 0.13810846 4
1.1749687 1.5936887 -0.53113544 106
1.2545751 1.7016643 -0.48916227 100
1.3512486 1.8327891 -0.44431037 78
2.1916835 2.9727271 -0.58908111 131
3.6044497 4.8889565 -0.74862856 15
4.6523795 6.3103342 -0.68698299 5
4.6695251 6.33359 -0.41901341 5
4.6813478 6.3496261 -0.13903503 5
4.7582312 6.4539075 2.1439021 34
4.8053088 6.5177622 1.8665167 102
4.7650981 6.463222 1.5598085 1
4.7653809 6.4636054 1.2687989 18
4.7475395 6.4394059 0.97904152 3
4.7234211 6.4066925 0.69547141 5
4.7051425 6.3818998 0.42022496 8
4.6873016 6.3577013 0.13723986 4
1.1912012 1.6057097 -0.53631723 109
1.2654233 1.705759 -0.49141645 90
1.3449851 1.8130064 -0.44048011 80
2.3181677 3.1248322 -0.62058276 59
3.6011999 4.8543277 -0.74495882 14
4.6414056 6.2564993 -0.68261844 9
4.6644983 6.2876277 -0.41688645 5
4.6763387 6.3035879 -0.13833016 6
4.7946267 6.4630375 2.1516511 32
4.7955971 6.4643455 1.8552861 1
70.184654 94.607162 22.882277 -1
4.7609978 6.417706 1.2625564 2
70.967117 95.661903 14.576301 -1
4.7246032 6.3686476 0.69286013 2
4.7062082 6.3438511 0.41863722 8
4.6882734 6.3196759 0.13671869 4
1.1901827 1.5944283 -0.53372633 114
1.2704787 1.7019969 -0.49141645 76
1.3562295 1.8168731 -0.44239524 76
2.3924079 3.2049894 -0.6379087 74
0.1 0.1 0.1 -1
4.6420717 6.2187514 -0.67999971 17
4.6592398 6.2417512 -0.41475946 4
4.6710973 6.2576361 -0.13762529 6
4.7906666 6.4178166 2.141319 14
69.948029 93.705879 26.95331 -1
4.7622628 6.379766 1.5464605 4
4.7682014 6.3877211 1.2594352 10
4.7441049 6.3554406 0.97053868 3
4.7256012 6.3306518 0.69024885 7
4.6951427 6.2898479 0.41599095 7
4.6830797 6.2736878 0.1360238 5
1.2012666 1.5981934 -0.53631723 127
1.2761158 1.6977745 -0.49141645 138
1.3681443 1.8202114 -0.44431037 70
2.4089563 3.2049322 -0.63948381 78
3.5719965 4.7522683 -0.73272634 47
4.6506972 6.1873975 -0.67825389 67
4.6559134 6.1943364 -0.4126325 8
4.6738005 6.2181344 -0.13709664 4
4.806118 6.3941722 2.138736 15
4.7892799 6.3717709 1.8373172 4
4.7774949 6.3560915 1.5445536 7
4.7656183 6.340291 1.2531925 3
71.566772 95.214119 14.576301 -1
4.7226257 6.283093 0.68676716 2
4.7039747 6.2582788 0.41493246 8
4.6918435 6.2421389 0.13567637 6
1.212109 1.6021141 -0.53890812 136
1.2873213 1.7015266 -0.49367067 99
1.3679341 1.8080771 -0.44239524 76
2.419013 3.1973484 -0.63948381 53
3.4611571 4.57481 -0.7070381 1
4.6340499 6.1250901 -0.67301637 47
4.6572757 6.1557884 -0.41103727 10
4.6691823 6.1715264 -0.13639177 8
4.8028669 6.3482251 2.1284039 11
4.7975149 6.3411512 1.8328251 20
4.7678256 6.301909 1.5350194 6
4.7497563 6.2780256 1.2438288 3
4.7371368 6.2613463 0.96082115 3
4.7182994 6.2364473 0.68328542 11
4.7055373 6.2195792 0.41334471 12
4.6873002 6.1954741 0.13498148 7
1.2112846 1.5906142 -0.53631723 140
1.2867579 1.689723 -0.49141645 139
1.3676612 1.7959621 -0.44048011 97
2.4290457 3.189733 -0.63948381 73
3.4454472 4.5244341 -0.70092183 16
4.6472344 6.1025763 -0.67214346 3
4.6523919 6.1093488 -0.4089103 8
4.6643171 6.1250091 -0.1356869 5
4.7876697 6.2869906 2.112906 14
4.793798 6.2950382 1.8238406 23
4.7757053 6.2712798 1.5312057 6
4.7455187 6.2316399 1.2375863 4
72.163605 94.762573 14.576301 -1
4.7197618 6.1978168 0.68067414 4
4.6887536 6.1570978 0.41016918 11
4.6825104 6.1488996 0.1342866 14
1.2162757 1.5868009 -0.53631723 144
1.29206 1.6856722 -0.49141645 115
1.3912092 1.815026 -0.44622549 85
2.4390545 3.1820862 -0.63948381 99
3.4294553 4.4742017 -0.69480562 12
4.6542625 6.0721335 -0.67039764 29
4.6472626 6.0630007 -0.40678331 11
4.6592064 6.0785832 -0.13498203 4
4.7956429 6.2565837 2.1077399 19
4.8016949 6.2644792 1.8193485 24
4.7714963 6.225081 1.5235782 6
4.7530546 6.2010217 1.2344649 4
4.7341156 6.1763129 0.95231831 5
4.6967869 6.1276126 0.67458117 7
4.6837735 6.1106348 0.40805221 11
4.6774745 6.1024165 0.13359171 9
1.2333332 1.5980513 -0.54149908 146
1.2916903 1.6736655 -0.48916227 120
1.4032171 1.8181727 -0.44814062 96
2.4495933 3.1739805 -0.63948381 87
3.4382095 4.4549475 -0.69358236 13
4.6439409 6.0172348 -0.66603309 19
4.6490393 6.0238409 -0.40518808 8
4.6610117 6.0393538 -0.13445339 6
4.7927547 6.2100554 2.0974078 21
4.7867203 6.2022362 1.8058717 26
4.7741203 6.1859102 1.5178577 7
4.7434173 6.1461282 1.2266617 5
4.7424421 6.1448641 0.94988889 9
4.7049079 6.0962305 0.6728403 4
4.685708 6.071353 0.40646446 10
4.6793585 6.0631261 0.13307054 12
1.2324225 1.5865412 -0.53890812 136
1.3029187 1.6772933 -0.49141645 123
1.4149431 1.8215065 -0.45005575 96
2.4595525 3.1662693 -0.63948381 136
3.4948077 4.4989901 -0.7021451 12
4.6322656 5.9632802 -0.66166854 14
4.6434369 5.9776611 -0.40306112 11
4.6554275 5.9930968 -0.13374852 8
4.7826085 6.1568213 2.0844927 11
4.7882481 6.1640816 1.7991334 24
4.7694421 6.1398721 1.5102302 9
4.7505836 6.1155949 1.2235404 8
4.7434559 6.1064186 0.94624484 9
4.7057028 6.0578179 0.67022902 5
4.6802545 6.0250578 0.40434745 11
4.6738486 6.0168109 0.13237566 14
1.2371244 1.5828775 -0.53890812 118
1.3078895 1.6734201 -0.49141645 107
0.1 0.1 0.1 -1
2.456774 3.1433964 -0.63633364 68
3.5509233 4.5433397 -0.71070784 8
4.6315355 5.9259629 -0.65904975 19
4.642705 5.9402537 -0.40146589 10
4.6547174 5.9556241 -0.13321987 10
4.7830076 6.1197691 2.0767436 12
4.7885141 6.1268144 1.7923951 9
4.7695036 6.1024904 1.5045097 12
4.7382956 6.0625606 1.2157372 6
4.7248783 6.0453935 0.93895668 9
4.6991172 6.0124326 0.66674733 5
4.685812 5.9954085 0.40328893 11
4.6732092 5.9792833 0.13185449 12
1.2418154 1.5791999 -0.53890812 77
1.3248934 1.684849 -0.49592486 140
0.1 0.1 0.1 -1
2.4599857 3.1283305 -0.63475853 108
3.570523 4.540586 -0.71193111 13
4.6306243 5.8887024 -0.65643102 8
4.6356192 5.8950543 -0.39933893 10
4.6538267 5.9182086 -0.13269122 10
4.7832298 6.0827684 2.0689948 12
4.782578 6.0819397 1.7834107 10
4.7511811 6.0420132 1.4930686 16
4.737946 6.0251818 1.2110554 7
4.7305236 6.0157428 0.93652731 10
4.6923041 5.9671402 0.66326559 5
4.6788893 5.9500804 0.40117195 13
4.6723881 5.941813 0.13133334 12
1.2230638 1.5447834 -0.52854455 101
1.3244256 1.6728078 -0.49367067 66
2.2237535 2.8086984 -0.69902277 15
2.470346 3.1201558 -0.63475853 31
3.597882 4.5442834 -0.71437758 10
4.625392 5.8420734 -0.65293938 9
4.6365466 5.8561621 -0.3977437 9
4.6548071 5.8792262 -0.13216257 6
4.7853847 6.0441508 2.0612457 13
4.7785254 6.0354877 1.7744262 10
4.7468171 5.9954391 1.4854411 7
4.7333746 5.9784603 1.2048128 14
4.725801 5.9688945 0.93166852 12
4.6935148 5.9281158 0.66065431 6
4.6738 5.9032149 0.39905494 15
4.6672406 5.8949299 0.13063845 12
1.2399492 1.5560405 -0.53372633 100
1.3418175 1.6838775 -0.49817908 81
2.2631495 2.8400779 -0.70859843 9
2.4493651 3.0737643 -0.62688309 84
3.6121404 4.5329576 -0.71437758 14
4.6313062 5.8119316 -0.65119356 7
4.6300287 5.810329 -0.39561671 13
4.6670232 5.8567543 -0.13198635 17
4.7802672 5.9988666 2.0509136 14
4.7792444 5.9975829 1.7676879 13
4.7533937 5.9651427 1.4816273 12
4.7398219 5.9481111 1.2016915 8
4.7136002 5.9152045 0.92559505 7
4.6934905 5.8899684 0.65804303 12
4.6798759 5.8728833 0.39799643 13
4.673275 5.8645992 0.130291 13
1.2508744 1.5596721 -0.53631723 117
1.33491 1.6644533 -0.49367067 106
2.2904828 2.8559239 -0.71434385 28
2.4466529 3.050647 -0.62373292 3
0.1 0.1 0.1 -1
4.6370764 5.7818108 -0.64944774 41
4.6420116 5.7879648 -0.39508498 12
4.6603775 5.8108644 -0.1312815 9
4.7749128 5.9536743 2.0405815 18
4.7736759 5.9521322 1.7587035 16
4.7475438 5.9195485 1.474 13
4.7275858 5.8946638 1.1938883 13
4.7259498 5.8926239 0.92438036 11
4.6995053 5.8596516 0.65630221 6
4.6795597 5.8347821 0.39640868 13
4.6666536 5.8186898 0.12959611 14
1.2557681 1.5557348 -0.53631723 128
1.3401325 1.6602513 -0.49367067 92
2.2624552 2.8028903 -0.70285302 15
2.4624271 3.0506299 -0.62530804 21
4.6067924 5.707222 -0.90398121 16
4.6239328 5.7284565 -0.64508319 19
4.6288118 5.7345009 -0.39242625 13
4.6723299 5.7884145 -0.13110527 22
4.7693219 5.9085751 2.0302494 17
4.7739902 5.9143586 1.7519652 14
4.7476196 5.8816886 1.4682794 15
4.727469 5.8567247 1.1892064 12
4.7132664 5.8391294 0.91830695 9
4.6928625 5.8138514 0.65282047 10
4.6665063 5.7811999 0.39376244 16
4.6597905 5.7728796 0.12890123 16
1.2667394 1.5592785 -0.53890812 134
1.3576279 1.6711565 -0.49817908 131
2.2464948 2.7652972 -0.69519252 8
2.4657722 3.0352142 -0.62373292 17
4.6184416 5.6850176 -0.902758 16
4.6230621 5.6907058 -0.6424644 15
4.6279149 5.6966791 -0.39083102 11
4.6526651 5.7271452 -0.13004798 14
4.7817693 5.8860641 2.0276663 18
4.7802587 5.8842049 1.7474729 17
4.7351255 5.828649 1.4587451 13
4.7271609 5.8188448 1.1845245 14
4.71907 5.8088851 0.91587752 9
4.6796966 5.7604194 0.64846838 10
4.6657557 5.743259 0.39217469 14
4.6652946 5.742691 0.12855379 14
1.283859 1.5702459 -0.54408997 137
1.3628713 1.6668832 -0.49817908 125
2.2675962 2.7734227 -0.69902277 17
2.3565311 2.8821962 -0.59380639 7
4.6048675 5.6320624 -0.89664173 22
4.615695 5.6453056 -0.63897276 14
4.6331472 5.6666508 -0.38976756 7
4.6579771 5.6970191 -0.12969553 19
4.7696624 5.8336177 2.0147514 23
4.7740488 5.8389826 1.7384884 16
4.7409863 5.7985449 1.4549314 10
4.7266612 5.7810245 1.1798426 14
4.7121639 5.7632937 0.91101879 10
4.6914644 5.7379766 0.64759791 9
4.671134 5.7131109 0.39111617 15
4.6643262 5.7047849 0.12803262 13
1.2765115 1.5512886 -0.53890812 145
1.3619107 1.6550703 -0.49592486 126
2.2700617 2.7587063 -0.69710767 14
2.3592994 2.8671532 -0.59223127 9
4.6099257 5.6022406 -0.89419526 22
4.620748 5.6153922 -0.63722694 21
4.6445813 5.6443563 -0.38923579 9
4.6440864 5.643755 -0.12881446 7
4.763412 5.7887659 2.0044193 30
4.767602 5.7938576 1.729504 16
4.7467046 5.7684622 1.4511176 11
4.7196946 5.7356381 1.1736001 10
4.705019 5.717803 0.90616 9
4.6904778 5.7001324 0.64498663 12
4.6700234 5.6752748 0.38952842 15
4.6568131 5.6592207 0.12733774 12
1.2998602 1.569587 -0.54668087 155
1.3733176 1.6582872 -0.49817908 126
1.4273283 1.7235054 -0.43664983 71
2.374594 2.8673329 -0.59380639 20
4.6021814 5.5571547 -0.88930225 20
4.6193047 5.5778308 -0.63460821 21
4.6368136 5.5989738 -0.38710883 7
4.6362848 5.5983348 -0.12810959 8
4.7692509 5.7588916 1.9992533 30
4.7795649 5.7713461 1.727258 125
4.7334971 5.7157187 1.4415834 10
4.7124901 5.6903529 1.1673574 11
4.7039652 5.6800594 0.90251595 9
4.6893001 5.6623511 0.64237535 10
4.6750913 5.6451936 0.38846993 17
4.6618142 5.6291618 0.1269903 19
1.2986009 1.5580763 -0.54408997 157
1.3847581 1.6614486 -0.50043327 108
1.413884 1.6963942 -0.43090445 1
0.1 0.1 0.1 -1
4.5941997 5.5121732 -0.88440925 18
4.6112928 5.5326819 -0.63111657 21
4.6415939 5.5690374 -0.38604534 14
4.6410465 5.5683808 -0.12775715 9
4.7687635 5.7216172 1.9915042 26
4.7664785 5.7188754 1.7160274 54
4.7262902 5.6706572 1.433956 13
4.7176952 5.6603446 1.1642362 8
4.7027216 5.6423788 0.89887184 11
4.6879315 5.6246333 0.63976407 9
4.6672292 5.5997949 0.38635293 13
4.6602712 5.5914469 0.12646914 17
1.3096964 1.5613889 -0.54668087 152
1.3899709 1.6570901 -0.50043327 152
1.4381292 1.7145033 -0.43664983 35
0.1 0.1 0.1 -1
4.6114936 5.4977126 -0.88440925 19
4.6222496 5.5105357 -0.6302436 16
4.6269794 5.5161743 -0.38338664 17
4.6328154 5.5231314 -0.12705229 13
4.7618814 5.677001 1.9811722 30
4.7531095 5.6665435 1.7047968 40
4.7314644 5.640739 1.4301423 15
4.7227592 5.6303606 1.1611149 9
4.7076664 5.6123672 0.89644247 10
4.6799698 5.5793481 0.63628238 9
4.6719632 5.5698032 0.38529441 12
4.6585379 5.5537972 0.12594797 20
1.308365 1.5498862 -0.54408997 154
1.4014544 1.6601598 -0.50268751 111
1.4245148 1.6874771 -0.43090445 15
1.4523734 1.7204782 -0.35911897 17
4.6031342 5.4528623 -0.87951624 12
4.6266866 5.480763 -0.62849778 24
4.6185203 5.4710889 -0.38125965 16
4.6436939 5.5009098 -0.12687607 19
4.7485342 5.625103 1.9682571 42
4.7520308 5.6292453 1.6980585 28
4.7238331 5.5958424 1.4225148 15
4.7213092 5.5928526 1.156433 13
4.6996636 5.5672112 0.89158368 11
4.6846228 5.5493937 0.63454151 7
4.6701136 5.5322065 0.38370666 11
4.6566138 5.5162139 0.1254268 14
1.3132277 1.5457683 -0.54408997 138
1.4003552 1.648324 -0.50043327 130
1.4234544 1.6755135 -0.42898932 14
1.4449837 1.7008551 -0.3559688 8
4.6073899 5.4232469 -0.87706977 8
4.618083 5.435833 -0.62500614 21
4.6227546 5.4413319 -0.38019618 14
4.6285849 5.4481945 -0.12599498 16
4.7536731 5.5954328 1.963091 46
4.7570739 5.5994358 1.6935663 26
4.7286782 5.5660119 1.4187012 14
4.7196708 5.5554094 1.151751 14
4.704277 5.5372901 0.88915431 9
4.6826835 5.5118728 0.63193023 15
4.6616087 5.4870663 0.38158968 15
4.6544995 5.4786983 0.12490564 19
1.3246242 1.5487449 -0.54668087 128
1.4184785 1.658479 -0.5049417 112
1.4353822 1.6782428 -0.43090445 15
1.43136 1.6735401 -0.35124356 11
4.6124468 5.3928533 -0.87462324 17
4.6101832 5.3902068 -0.6215145 7
4.6213017 5.4032059 -0.37860096 15
4.62713 5.4100208 -0.12546633 9
4.7470851 5.5502715 1.952759 44
4.7629485 5.5688195 1.689074 55
4.7279682 5.5279202 1.4129806 14
4.7123866 5.5097027 1.1455085 14
4.6968069 5.4914865 0.88429558 9
4.6815104 5.4736018 0.62931895 15
4.6667976 5.4563994 0.38053116 17
4.646647 5.4328394 0.12421075 19
1.3294832 1.5445758 -0.54668087 127
1.4236817 1.6540146 -0.5049417 113
1.4406476 1.6737251 -0.43090445 11
1.4366106 1.6690351 -0.35124356 10
4.6034679 5.3482475 -0.86973023 27
4.6075983 5.3530464 -0.61889577 13
4.61871 5.3659558 -0.37700573 11
4.6310582 5.380302 -0.1251139 15
4.751894 5.5206871 1.947593 43
4.7486353 5.5169015 1.6778436 48
4.7196956 5.4832797 1.4053531 16
4.7103415 5.4724121 1.1408266 27
4.6946096 5.4541354 0.88065147 9
4.6791863 5.4362168 0.62670767 10
4.6643729 5.4190063 0.37894341 17
4.6506462 5.403059 0.12386331 16
1.3277376 1.5333228 -0.54408997 127
1.428583 1.6497831 -0.5049417 131
1.4520322 1.6768631 -0.43281958 13
1.435092 1.6572999 -0.34966847 17
4.5868316 5.297051 -0.86361402 34
4.6104188 5.3242903 -0.61714995 21
4.6215372 5.3371305 -0.37594223 10
4.6339111 5.3514204 -0.12476147 18
4.7492814 5.4846544 1.9398439 43
4.7394681 5.4733219 1.6688591 55
4.7102404 5.439568 1.3977257 18
4.70716 5.4360113 1.1361448 13
4.6977768 5.4251747 0.87822211 9
4.6692104 5.3921852 0.62322599 12
4.66082 5.3824959 0.37735566 17
4.6404767 5.3590026 0.12316843 17
1.3322812 1.5293766 -0.54408997 127
1.4334718 1.6455371 -0.5049417 146
1.4570011 1.6725475 -0.43281958 18
1.4464895 1.6604807 -0.35124356 11
4.5894895 5.2684512 -0.86116749 24
4.6000223 5.2805419 -0.61365825 38
4.6242342 5.3083353 -0.37487873 13
4.6300664 5.3150306 -0.12423282 13
4.7528424 5.4559703 1.9346778 37
4.7428856 5.44454 1.6643668 56
4.7199111 5.4181666 1.3958188 16
4.7102923 5.407125 1.1330234 12
4.694293 5.3887591 0.874578 9
4.6721015 5.3632846 0.62148511 12
4.663651 5.3535838 0.37629718 18
4.6432219 5.330132 0.12282099 20
1.3503507 1.5392379 -0.54927176 126
1.4649072 1.6698185 -0.51395851 130
1.4628305 1.6674514 -0.43281958 23
1.4587892 1.6628448 -0.35281864 14
4.5882163 5.2300162 -0.85749775 19
4.6052876 5.2494755 -0.61191243 19
4.609808 5.2546287 -0.37222004 15
4.6354036 5.2838044 -0.12388039 13
4.7463746 5.4102979 1.9243459 29
4.7425828 5.4059758 1.6576285 50
4.7129002 5.3721409 1.3881915 15
4.7030821 5.3609495 1.1267809 24
4.6868911 5.342494 0.86971927 10
4.6645155 5.3169885 0.61800337 11
4.6559682 5.3072453 0.37418017 18
4.6486115 5.2988596 0.12247355 14
1.3487874 1.5277475 -0.54668087 128
1.4701458 1.6652081 -0.51395851 128
2.5009017 2.832727 -0.73732537 39
1.4640061 1.6582537 -0.35281864 25
4.5914869 5.2006955 -0.85505128 13
4.6085701 5.2200456 -0.61016661 25
4.6130753 5.2251487 -0.37115654 16
4.6255112 5.2392344 -0.12317552 17
4.7569542 5.3881178 1.9217628 33
4.7401953 5.3691349 1.6508902 30
4.7102633 5.3352318 1.3824708 15
4.7068262 5.3313389 1.1236596 18
4.6905131 5.312861 0.86728984 10
4.674603 5.2948403 0.61713296 10
4.6594 5.2776198 0.37312165 22
4.6387658 5.2542477 0.12177866 21
1.3599954 1.5307231 -0.54927176 129
1.4753699 1.6605812 -0.51395851 136
2.5358644 2.8542054 -0.74498594 15
1.4823263 1.6684109 -0.3559688 125
4.6012106 5.1788259 -0.85382801 21
4.6050973 5.1832004 -0.60754788 15
4.6162028 5.1957002 -0.37009305 16
4.6286659 5.2097278 -0.12282308 15
4.7481923 5.3442588 1.9114307 41
4.7440948 5.3396473 1.6463979 22
4.7139611 5.3057303 1.3786571 14
4.7104311 5.3017573 1.1205384 15
4.6939955 5.2832589 0.86486048 10
4.6713643 5.2577863 0.61452168 12
4.6626921 5.2480254 0.37206316 22
4.6419678 5.2247 0.12143122 19
1.3647976 1.526443 -0.54927176 123
1.4870733 1.663201 -0.5162127 147
0.1 0.1 0.1 -1
3.7583938 4.2035346 -0.89937252 1
4.5777659 5.1199527 -0.84648854 18
4.5947986 5.1390023 -0.60405624 18
4.6191912 5.1662841 -0.36902958 16
4.6250172 5.1728001 -0.12229443 16
4.7392015 5.3005085 1.9010987 45
4.7348666 5.29566 1.6374135 59
4.7109771 5.2689409 1.3729366 14
4.7007294 5.2574797 1.1142957 13
4.6907225 5.2462873 0.86121643 10
4.6745791 5.2282319 0.61278081 8
4.6525321 5.2035742 0.36994615 19
4.6383657 5.1877298 0.12091005 20
1.3757796 1.529568 -0.55186266 110
1.4985168 1.666025 -0.51846689 80
3.1571062 3.510016 -0.92117798 28
3.810473 4.2364178 -0.90882301 14
4.592937 5.1063476 -0.84648854 18
4.603364 5.1179399 -0.60318333 18
4.6144657 5.1302824 -0.36743435 16
4.6202855 5.1367531 -0.12176578 19
4.7355261 5.2648759 1.8933496 39
4.7310085 5.2598534 1.6306752 44
4.7200251 5.2476416 1.3710297 13
4.7030969 5.2288213 1.1111745 14
4.6929917 5.217587 0.858787 9
4.6634226 5.1847124 0.60929912 15
4.6545949 5.1748977 0.36888766 18
4.6336784 5.1516433 0.12038889 20
1.3738315 1.5183173 -0.54927176 82
1.4969167 1.6543473 -0.5162127 126
3.0950689 3.420577 -0.9001115 33
3.8362775 4.2397385 -0.91197318 85
4.5880904 5.0706196 -0.84281874 16
4.5984774 5.082099 -0.60056454 18
4.6028671 5.0869503 -0.36530736 18
4.6220894 5.1081944 -0.12141335 17
4.738163 5.2364755 1.8881836 37
4.7335181 5.2313418 1.626183 40
4.709229 5.2044978 1.3634022 14
4.7053356 5.2001953 1.1080532 15
4.6884727 5.1815591 0.85514295 8
4.6587338 5.1486921 0.60668784 10
4.6498284 5.1388507 0.36729991 17
4.6355267 5.1230445 0.12004144 16
1.3658508 1.4994725 -0.54408997 128
1.4958338 1.6421717 -0.51395851 58
0.1 0.1 0.1 -1
3.6973672 4.0590816 -0.87574625 17
4.5848298 5.0333652 -0.839149 14
4.5884719 5.0373635 -0.5970729 15
4.5995374 5.0495119 -0.36371213 19
4.6188045 5.0706639 -0.1208847 19
4.7359853 5.1993084 1.8804346 32
4.731154 5.1940045 1.6194447 29
4.7066302 5.1670814 1.3576818 16
