# .PCD v0.7 - Point Cloud Data file format
VERSION 0.7
FIELDS x y z intensity
SIZE 4 4 4 4
TYPE F F F F
COUNT 1 1 1 1
WIDTH 1551
HEIGHT 1
VIEWPOINT 0 0 0 1 0 0 0
POINTS 1551
DATA ascii
3.2914703 1.8244917 0.59460318 6
3.2815819 1.8190105 0.45915347 3
3.2499497 1.8014765 0.32466939 3
3.2490253 1.8009641 0.19688122 5
3.2618392 1.808067 0.064798057 5
3.1899469 1.7558638 -0.976771 10
3.226253 1.775848 -0.85208911 11
3.2157965 1.7700924 -0.71625894 4
3.2268944 1.776201 -0.58750606 9
3.234448 1.7803588 -0.45504874 5
3.2377551 1.7821792 -0.32385096 6
3.2280669 1.7768465 -0.19621313 4
3.2321384 1.7790877 -0.065023988 3
3.2583506 1.7935158 0.99446058 4
3.2780921 1.8043822 0.86250591 7
3.2679229 1.7987847 0.72460544 4
3.2795627 1.8051918 0.59148192 6
3.269573 1.799693 0.45672408 3
3.2552803 1.7918258 0.32466939 3
3.2368581 1.7816855 0.19582272 5
3.249671 1.7887381 0.064450614 7
3.1951425 1.7463913 -0.976771 9
3.2229588 1.761595 -0.84983492 10
0.1 0.1 0.1 -1
3.2148197 1.7571464 -0.58435589 3
3.2222981 1.761234 -0.45260224 5
3.2342873 1.767787 -0.32297805 5
3.2333248 1.7672609 -0.19621313 4
3.2374029 1.7694899 -0.065023988 3
101.7244 55.600212 30.996174 -1
3.2663302 1.7853009 0.85801369 1
3.264632 1.7843726 0.72269857 4
3.2762372 1.7907158 0.5899213 4
3.2661886 1.7852235 0.45550939 3
3.2605824 1.7821593 0.32466939 3
3.2508926 1.7768631 0.19635196 5
3.2549641 1.7790884 0.064450614 5
3.1924257 1.731182 -0.9741801 9
3.2202184 1.7462534 -0.84758067 10
3.2095988 1.7404946 -0.71242869 4
3.2119479 1.7417685 -0.58278078 8
3.228121 1.7505388 -0.45260224 5
3.2401316 1.7570519 -0.32297805 6
3.2391675 1.7565291 -0.19621313 4
3.243253 1.7587445 -0.065023988 4
3.2525706 1.7637973 0.98929459 4
3.2893646 1.7837499 0.86250591 11
3.2705312 1.7735369 0.72269857 4
3.2734745 1.7751329 0.58836067 5
3.2720907 1.7743826 0.45550939 3
3.2489598 1.7618393 0.32292855 3
3.2479887 1.7613126 0.19582272 5
3.2520564 1.7635185 0.064276896 6
3.1893437 1.7165667 -0.97158921 10
3.2256885 1.7361281 -0.84758067 10
0.1 0.1 0.1 -1
3.2174039 1.7316693 -0.58278078 2
3.2336044 1.7403888 -0.45260224 4
3.2368636 1.7421429 -0.32210511 5
3.2270834 1.736879 -0.19514965 4
3.2311537 1.7390697 -0.064671554 3
102.08133 54.94215 30.996174 -1
3.2692103 1.7595525 0.85576761 4
3.2674427 1.7586011 0.7207917 3
3.2703373 1.760159 0.58680004 4
3.2601681 1.7546858 0.45308 3
3.2457066 1.7469022 0.32205811 3
3.2447128 1.7463675 0.19529347 6
3.2487764 1.7485545 0.064103171 5
3.1947207 1.7065386 -0.97158921 9
3.2311268 1.7259858 -0.84758067 10
3.2204711 1.7202939 -0.71242869 4
3.2228281 1.721553 -0.58278078 14
3.2303019 1.7255452 -0.451379 6
3.2423208 1.7319654 -0.32210511 4
3.2325242 1.7267323 -0.19514965 4
3.2366011 1.7289101 -0.064671554 4
3.2550673 1.7387743 0.98671156 4
3.2747221 1.7492733 0.85576761 10
3.2642927 1.7437022 0.71888483 4
3.2671385 1.7452223 0.58523935 3
3.2656646 1.7444351 0.45308 3
3.2511785 1.736697 0.32205811 2
3.2589912 1.7408704 0.19582272 5
3.2542536 1.7383395 0.064103171 5
3.1829991 1.6874458 -0.96640742 8
3.2107098 1.7021363 -0.84081811 10
0.1 0.1 0.1 -1
3.2194958 1.7067943 -0.58120573 4
3.235707 1.7153884 -0.451379 5
3.2389445 1.7171048 -0.3212322 4
3.2379329 1.7165685 -0.19514965 3
3.224349 1.7093672 -0.064319119 4
102.42452 54.299675 30.996174 -1
3.2629826 1.7298484 0.85127538 2
3.2697546 1.7334386 0.71888483 4
3.2638781 1.7303232 0.58367872 4
3.2711287 1.734167 0.45308 3
3.2478168 1.7218084 0.32118767 3
3.2379758 1.7165912 0.19423497 6
3.2508647 1.7234242 0.063929453 6
3.1965387 1.6824929 -0.96899831 8
3.2243671 1.6971402 -0.8430723 9
3.2222345 1.6960176 -0.71051353 4
3.2158072 1.6926347 -0.57963061 10
3.2232172 1.6965349 -0.4489325 5
3.2352097 1.7028471 -0.32035929 4
3.2253387 1.6976516 -0.19408616 4
3.2294066 1.6997927 -0.064319119 3
3.2485306 1.7098587 0.98154551 4
3.2767236 1.7246979 0.85352147 7
3.2661967 1.7191572 0.71697801 3
3.2689977 1.7206315 0.58367872 3
3.2674761 1.7198306 0.45186532 3
3.2352803 1.7028843 0.31944683 3
3.2430549 1.7069764 0.19423497 6
3.2471163 1.7091142 0.063755728 6
3.1929564 1.6685278 -0.96640742 10
3.2207539 1.6830537 -0.84081811 7
0.1 0.1 0.1 -1
3.2120631 1.6785122 -0.57805556 3
3.2194405 1.6823673 -0.44770923 4
3.2314188 1.6886269 -0.31948638 5
3.2303615 1.6880744 -0.19408616 3
3.2344358 1.6902034 -0.064319119 4
3.2621517 1.7046868 0.98412853 8
3.2645538 1.705942 0.84902924 3
3.262583 1.7049122 0.71507114 4
3.2653344 1.70635 0.58211809 4
3.2637675 1.7055311 0.45065063 3
3.2491479 1.6978915 0.32031724 3
3.2392547 1.6927216 0.19370571 7
3.2521729 1.6994723 0.063755728 6
3.198472 1.6579304 -0.96640742 8
3.2176676 1.6678805 -0.83856386 8
3.2153995 1.6667048 -0.70668328 4
3.2176116 1.6678513 -0.57805556 10
3.2250016 1.6716821 -0.44770923 4
3.2370007 1.6779019 -0.31948638 5
3.2359416 1.6773528 -0.19408616 3
3.2311461 1.6748672 -0.064142905 3
3.2592099 1.6894139 0.98154551 7
3.2701929 1.695107 0.84902924 3
3.2595036 1.6895661 0.71316427 4
3.2622056 1.6909667 0.58055747 4
3.2605927 1.6901307 0.44943592 3
3.2459159 1.682523 0.31944683 3
3.2448502 1.6819706 0.19370571 6
3.248914 1.684077 0.063582011 6
3.2036648 1.647874 -0.96640742 7
3.2228916 1.6577637 -0.83856386 9
0.1 0.1 0.1 -1
3.2140536 1.6532178 -0.57648045 2
3.2302375 1.6615422 -0.44770923 5
3.2333975 1.6631676 -0.31861347 4
3.2323153 1.6626109 -0.19355442 3
3.2275009 1.6601346 -0.063966684 3
3.2559104 1.6747476 0.97896248 7
3.2668366 1.6803678 0.84678316 3
3.2647953 1.6793178 0.71316427 3
3.258718 1.6761918 0.57899684 4
3.2570596 1.6753387 0.44822124 3
3.2511857 1.6723174 0.31944683 4
3.2412381 1.6672007 0.19317646 6
3.2541885 1.673862 0.063582011 6
3.2002232 1.6334103 -0.96381652 10
3.2194061 1.6432014 -0.83630967 7
3.217066 1.6420071 -0.70476818 4
3.2104359 1.638623 -0.5749054 7
3.2266014 1.646874 -0.446486 5
3.2386065 1.6530014 -0.31861347 4
3.2375226 1.6524482 -0.19355442 4
3.2327003 1.6499869 -0.063966684 3
3.2611558 1.6645106 0.97896248 5
3.2634203 1.6656665 0.84453702 4
3.252568 1.6601274 0.70935059 3
3.263968 1.665946 0.57899684 4
3.2623069 1.6650982 0.44822124 3
3.2475502 1.6575663 0.3185764 3
3.2464597 1.6570098 0.19317646 7
3.2505255 1.6590849 0.063408285 5
3.1881058 1.6146208 -0.95863467 8
3.2071693 1.6242756 -0.8318013 7
3.2397208 1.6407613 -0.70859843 8
3.2155678 1.6285291 -0.5749054 3
3.2229052 1.6322449 -0.44526273 5
3.2348964 1.6383179 -0.31774056 4
3.2337892 1.6377573 -0.19302267 3
3.2289481 1.6353055 -0.06379047 3
3.2577505 1.6498924 0.97637951 6
3.2686372 1.655406 0.84453702 4
3.2665248 1.6543362 0.7112574 4
3.2691855 1.6556838 0.57899684 4
3.2586668 1.6503564 0.44700655 3
3.2527416 1.6473557 0.3185764 3
3.2427409 1.6422908 0.1926472 6
3.2468019 1.6443475 0.063234568 5
3.210423 1.6132706 -0.96381652 8
3.2209616 1.6185665 -0.83405548 7
3.2360895 1.6261684 -0.70668328 7
3.2118444 1.6139849 -0.57333028 3
3.2191489 1.6176555 -0.44403949 4
3.222225 1.6192013 -0.31599474 4
3.229996 1.6231062 -0.19249094 4
3.2340698 1.6251534 -0.06379047 3
3.2542856 1.6353121 0.97379649 4
3.2651145 1.6407537 0.84229094 5
3.2541633 1.6352506 0.70744371 4
3.2655451 1.6409701 0.57743621 4
3.2549663 1.6356541 0.44579184 3
3.2489996 1.6326557 0.31770596 3
3.2389615 1.6276115 0.19211796 6
3.2519517 1.6341393 0.063234568 5
3.1981878 1.5945576 -0.95863467 7
3.2173116 1.6040924 -0.8318013 7
3.2148311 1.6028557 -0.70093793 6
3.2080615 1.5994804 -0.57175523 3
3.215333 1.6031058 -0.44281626 5
3.2183809 1.6046255 -0.3151218 4
3.2350791 1.6129509 -0.19249094 4
3.2302115 1.6105239 -0.063614249 3
3.2507613 1.6207699 0.97121346 5
3.2702529 1.630488 0.84229094 3
3.2680697 1.6293994 0.70935059 4
3.2618446 1.6262957 0.57587552 4
3.2600887 1.6254203 0.44579184 3
3.2541127 1.6224407 0.31770596 4
3.2529955 1.6218837 0.1926472 6
3.2570696 1.623915 0.063234568 7
3.1945243 1.58022 -0.95604378 7
3.2136025 1.5896573 -0.82954705 7
3.2286482 1.5970999 -0.70285302 5
3.2219219 1.5937726 -0.57333028 4
3.2203534 1.5929967 -0.44281626 4
3.2323351 1.5989237 -0.31599474 4
3.2311797 1.5983521 -0.19195919 3
3.2262931 1.5959349 -0.063438036 3
3.2558372 1.6105493 0.97121346 5
3.2666249 1.6158856 0.8400448 6
3.2643735 1.614772 0.70744371 4
3.2669375 1.6160403 0.57587552 3
3.2651792 1.6151704 0.44579184 3
3.2502644 1.6077926 0.31683555 3
3.2401733 1.602801 0.19158871 5
3.2531931 1.6092414 0.063060842 6
3.1908023 1.5659211 -0.95345289 9
3.2098346 1.5752614 -0.82729286 11
3.2160277 1.5783007 -0.69902277 5
3.2180479 1.5792922 -0.57175523 4
3.2164321 1.5784992 -0.44159299 4
3.2194564 1.5799835 -0.31424889 4
3.2361851 1.5881932 -0.19195919 3
3.2312911 1.5857913 -0.063438036 3
3.2522082 1.5960567 0.96863043 5
3.2629373 1.6013222 0.83779871 6
3.2518055 1.5958591 0.70362997 4
3.2631311 1.6014173 0.57431489 3
3.2524157 1.5961585 0.44336247 3
3.2463562 1.5931847 0.31596512 3
3.2451925 1.5926137 0.19158871 5
3.2582326 1.5990132 0.063060842 6
3.1954343 1.5564469 -0.95345289 8
3.2144945 1.5657307 -0.82729286 9
3.2118726 1.5644537 -0.69710767 5
3.2227197 1.5697371 -0.57175523 3
3.2300241 1.573295 -0.44281626 4
3.2241302 1.5704242 -0.31424889 4
3.2319057 1.5742115 -0.19142744 3
3.2359819 1.5761969 -0.063438036 3
3.2482443 1.5821698 0.96604747 5
3.2589138 1.5873667 0.83555257 6
3.2653515 1.5905024 0.70553684 4
3.2589881 1.5874029 0.57275426 4
3.2571373 1.5865014 0.44336247 3
3.2510691 1.5835456 0.31596512 3
3.240926 1.5786052 0.19105946 6
3.2449849 1.5805821 0.0627134 5
3.1913426 1.5427552 -0.95086199 8
3.2103543 1.5519459 -0.82503867 8
3.2165003 1.554917 -0.69710767 4
3.2362537 1.5644661 -0.57333028 13
3.2257426 1.5593848 -0.44159299 4
3.2198067 1.5565153 -0.31337598 4
3.2275717 1.5602691 -0.19089571 3
3.2316425 1.562237 -0.063261814 4
3.2529244 1.5725251 0.96604747 4
3.2636092 1.5776904 0.83555257 5
3.2612181 1.5765345 0.70362997 4
3.2636838 1.5777264 0.57275426 4
3.2618301 1.5768303 0.44336247 3
3.246784 1.5695567 0.31509468 3
3.2455957 1.5689822 0.19105946 6
3.2496603 1.5709472 0.0627134 5
3.1964409 1.532164 -0.95086199 10
3.2154832 1.5412915 -0.82503867 9
3.2127883 1.5399997 -0.69519252 4
3.2147088 1.5409204 -0.56860507 9
3.2129962 1.5400994 -0.43914649 4
3.2249506 1.5458295 -0.31337598 4
3.2237232 1.5452412 -0.19036396 3
3.2368052 1.5515119 -0.063261814 3
3.2406981 1.5533779 0.96088141 4
3.260036 1.5626471 0.83330649 5
3.2664282 1.5657113 0.70362997 4
3.2599907 1.5626255 0.57119364 4
3.2670412 1.566005 0.44336247 3
3.251971 1.5587814 0.31509468 3
3.2417758 1.5538944 0.19053021 6
3.2548518 1.5601623 0.0627134 7
3.1837933 1.5138196 -0.94568014 13
3.2115107 1.5269986 -0.82278442 9
3.2176104 1.5298989 -0.69519252 4
3.2195339 1.5308135 -0.56860507 8
3.2267818 1.5342597 -0.44036976 4
3.2207944 1.5314128 -0.31250307 4
3.2285619 1.5351059 -0.19036396 3
3.2236042 1.5327487 -0.062909387 3
3.2368376 1.5390409 0.95829839 5
3.2649291 1.5523977 0.83330649 5
3.2536001 1.5470111 0.69981629 4
3.2648838 1.5523763 0.57119364 4
3.2540164 1.547209 0.44093308 3
3.2478552 1.5442796 0.31422427 3
3.2466414 1.5437025 0.19053021 6
3.2416778 1.5413423 0.06236596 5
3.197269 1.5079299 -0.9482711 26
3.2162921 1.5169019 -0.82278442 14
3.2224009 1.5197829 -0.69519252 4
3.233259 1.5249039 -0.57018012 7
3.2226093 1.5198812 -0.43914649 4
3.2255895 1.5212868 -0.31250307 4
3.2243369 1.5206959 -0.18983221 4
3.2284036 1.522614 -0.062909387 3
3.2416565 1.5288645 0.95829839 4
3.2609766 1.5379764 0.83106041 5
3.2495656 1.5325946 0.69790941 4
3.2608109 1.5378982 0.56963301 4
3.2588611 1.5369786 0.44093308 3
3.2436805 1.529819 0.31335384 3
3.2334113 1.5249758 0.18947171 5
3.255547 1.5354158 0.062539682 6
0.1 0.1 0.1 -1
3.2122169 1.5026618 -0.82053024 27
3.2182693 1.5054932 -0.69327736 4
3.2201438 1.5063701 -0.56702995 6
3.2273684 1.5097497 -0.43914649 4
3.2213297 1.5069247 -0.31163016 6
3.2200532 1.5063276 -0.18930048 4
3.233171 1.5124642 -0.062909387 3
3.2376931 1.5145795 0.95571536 4
3.2569656 1.5235951 0.82881427 4
3.2454727 1.5182188 0.69600254 4
3.2656262 1.5276465 0.56963301 4
3.2546825 1.5225271 0.4397184 3
3.2394471 1.5154001 0.3124834 3
3.2381864 1.5148102 0.18947171 6
3.2512982 1.520944 0.06236596 6
0.1 0.1 0.1 -1
3.2169218 1.492563 -0.82053024 125
3.2229829 1.4953753 -0.69327736 5
3.2248604 1.4962462 -0.56702995 5
3.2230923 1.4954259 -0.43792325 4
3.2260478 1.4967972 -0.31163016 5
3.2157111 1.4920013 -0.18876873 4
3.2197671 1.4938831 -0.062556952 3
3.2424355 1.5044006 0.95571536 4
3.2617359 1.5133556 0.82881427 4
3.2413216 1.5038837 0.69409573 4
3.2614493 1.5132226 0.56807238 4
3.2594497 1.5122948 0.4397184 3
3.2441919 1.5052155 0.3124834 3
3.2338707 1.5004269 0.18894246 6
3.2379208 1.502306 0.062018517 6
0.1 0.1 0.1 -1
3.2038939 1.4743041 -0.81602186 168
3.2365811 1.4893454 -0.69519252 5
3.2205741 1.4819796 -0.5654549 5
3.2277744 1.4852929 -0.43792325 4
3.2216845 1.4824907 -0.31075725 5
3.2203827 1.4818915 -0.18876873 4
3.2244444 1.4837606 -0.062556952 3
3.2471457 1.4942068 0.95571536 4
3.2487698 1.4949542 0.82432204 4
3.2460301 1.4936935 0.69409573 4
3.2572141 1.4988399 0.56651169 4
3.2551675 1.4978981 0.43850371 3
3.2398546 1.4908518 0.31161299 3
3.2385685 1.49026 0.18894246 6
3.2426243 1.4921263 0.062018517 6
0.1 0.1 0.1 -1
3.190783 1.4561418 -0.81151342 223
3.223386 1.4710203 -0.69136226 6
3.2162302 1.4677547 -0.56387979 4
3.2233956 1.4710248 -0.43669999 5
3.226326 1.4723622 -0.31075725 4
3.2250221 1.4717671 -0.18876873 4
3.2290897 1.4736234 -0.062556952 3
3.2342463 1.4759766 0.95054936 4
3.2534504 1.4847405 0.82432204 4
3.2507067 1.4834884 0.69409573 4
3.2529209 1.4844989 0.56495106 4
3.2598572 1.4876643 0.43850371 3
3.2354593 1.4765302 0.31074256 3
3.2341497 1.4759325 0.1884132 6
3.2472961 1.4819319 0.062018517 6
0.1 0.1 0.1 -1
0.1 0.1 0.1 -1
3.2369332 1.4649334 -0.69327736 9
3.2208252 1.4576434 -0.56387979 5
3.2189591 1.4567988 -0.43547675 4
3.2218599 1.4581118 -0.30988434 5
3.2205324 1.4575108 -0.18823698 3
3.2154853 1.4552268 -0.062204517 3
3.2476685 1.4697918 0.95313239 4
3.2580986 1.4745122 0.82432204 4
3.2464077 1.4692212 0.69218886 4
3.2485695 1.4701996 0.56339043 4
3.2554717 1.4733233 0.437289 3
3.240082 1.4663584 0.31074256 3
3.2387705 1.4657649 0.1884132 6
3.2337174 1.463478 0.061671074 6
0.1 0.1 0.1 -1
0.1 0.1 0.1 -1
3.2236104 1.4467196 -0.6894471 15
3.2253888 1.4475178 -0.56387979 8
3.2235198 1.446679 -0.43547675 4
3.2264249 1.4479828 -0.30988434 5
3.2250955 1.4473861 -0.18823698 4
3.2291632 1.4492116 -0.062380735 3
3.2434561 1.4556262 0.95054936 5
3.2538247 1.4602795 0.82207596 5
3.2510076 1.4590151 0.69218886 4
3.2441607 1.4559424 0.56182981 4
3.2510285 1.4590245 0.43607432 3
3.2264953 1.4480144 0.30900168 4
3.2342486 1.451494 0.18788396 6
3.2382991 1.4533118 0.061671074 5
0.1 0.1 0.1 -1
0.1 0.1 0.1 -1
0.1 0.1 0.1 -1
3.2208982 1.4333627 -0.56230468 18
3.2280488 1.4365449 -0.43547675 4
3.230958 1.4378395 -0.30988434 5
3.2296267 1.437247 -0.18823698 4
3.2154305 1.4309295 -0.0620283 3
3.239187 1.4415016 0.94796634 4
3.2494936 1.4460882 0.81982982 5
3.2466066 1.4448035 0.69028199 4
3.2487187 1.4457434 0.56182981 4
3.2555962 1.448804 0.43607432 3
3.2401299 1.4419212 0.30987212 3
3.2387927 1.4413261 0.18788396 6
3.2337141 1.4390661 0.061497353 6
0.1 0.1 0.1 -1
0.1 0.1 0.1 -1
0.1 0.1 0.1 -1
3.2161028 1.4198116 -0.56072962 64
3.2322969 1.4269607 -0.43547675 5
3.2352099 1.4282467 -0.30988434 5
3.2156062 1.4195924 -0.1871735 3
3.219662 1.4213828 -0.0620283 3
3.2434499 1.4318844 0.94796634 4
3.2537699 1.4364405 0.81982982 5
3.250879 1.4351642 0.69028199 4
3.2529941 1.4360979 0.56182981 4
3.2598805 1.4391381 0.43607432 3
3.2352805 1.428278 0.30900168 3
3.2247844 1.4236442 0.18682545 6
3.2288229 1.4254271 0.061323632 5
0.1 0.1 0.1 -1
0.1 0.1 0.1 -1
0.1 0.1 0.1 -1
3.2112556 1.4063016 -0.55915451 151
3.2274251 1.4133828 -0.43425351 4
3.2303081 1.4146452 -0.30901143 5
3.219804 1.4100453 -0.1871735 4
3.223865 1.4118236 -0.0620283 4
3.2388349 1.4183793 0.94538331 4
3.2490914 1.422871 0.81758374 5
3.2461309 1.4215745 0.68837512 4
3.2572408 1.4264398 0.56182981 4
3.2550437 1.4254777 0.43485963 3
3.2395041 1.4186724 0.30900168 3
3.2289941 1.4140698 0.18682545 5
3.2421968 1.4198515 0.061497353 6
0.1 0.1 0.1 -1
0.1 0.1 0.1 -1
0.1 0.1 0.1 -1
3.1977837 1.3877821 -0.55600435 145
3.2320943 1.4026724 -0.43425351 5
3.2349815 1.4039254 -0.30901143 5
3.2244623 1.3993602 -0.1871735 3
3.2193573 1.3971447 -0.061852083 4
3.2523825 1.4114771 0.94796634 7
3.253792 1.4120888 0.81758374 3
3.2508271 1.4108021 0.68837512 4
3.252892 1.4116982 0.56026918 4
3.2506475 1.4107242 0.43364492 3
3.2350521 1.4039561 0.30813128 3
3.2245049 1.3993788 0.18629621 6
3.2377152 1.4051118 0.061323632 8
0.1 0.1 0.1 -1
0.1 0.1 0.1 -1
0.1 0.1 0.1 -1
3.2111988 1.3816321 -0.55757946 136
3.2273681 1.388589 -0.43303025 5
3.2210746 1.3858812 -0.30726558 5
3.2288425 1.3892233 -0.1871735 4
3.2145462 1.3830723 -0.061675865 4
3.2479267 1.3974344 0.94538331 6
3.2492609 1.3980085 0.8153376 4
3.2462261 1.3967026 0.6864683 4
3.2573109 1.401472 0.56026918 4
3.2459457 1.396582 0.43243024 3
3.2302959 1.3898487 0.30726084 4
3.2288854 1.3892418 0.18629621 6
3.2421136 1.3949333 0.061323632 5
0.1 0.1 0.1 -1
0.1 0.1 0.1 -1
0.1 0.1 0.1 -1
3.2062013 1.3682222 -0.55600435 127
3.2223456 1.3751116 -0.43180701 6
3.2251723 1.376318 -0.30726558 5
3.2237659 1.3757176 -0.18664175 3
3.2278318 1.3774529 -0.061852083 4
3.2431731 1.3839997 0.94280028 6
3.2533946 1.3883616 0.8153376 4
3.241327 1.3832119 0.68456143 4
3.2523701 1.3879243 0.55870855 4
3.2500751 1.386945 0.43243024 3
3.2344055 1.3802581 0.30726084 3
3.2329931 1.3796554 0.18629621 6
3.237042 1.3813832 0.06114991 6
0.1 0.1 0.1 -1
0.1 0.1 0.1 -1
0.1 0.1 0.1 -1
3.2011526 1.3548542 -0.55442929 122
3.2264113 1.3655447 -0.43180701 5
3.2292418 1.3667426 -0.30726558 5
3.2186372 1.3622544 -0.18611002 4
3.2226968 1.3639725 -0.061675865 4
3.2383687 1.3706055 0.94021732 5
3.2574997 1.3787025 0.8153376 5
3.254457 1.3774147 0.6864683 4
3.2473774 1.3744184 0.55714786 4
3.2450349 1.3734269 0.43121555 3
3.2384865 1.3706553 0.30726084 3
3.2370725 1.3700569 0.18629621 6
3.2411263 1.3717726 0.06114991 8
0.1 0.1 0.1 -1
0.1 0.1 0.1 -1
0.1 0.1 0.1 -1
3.2056279 1.3442314 -0.55442929 112
3.230922 1.354838 -0.43180701 5
3.2245696 1.3521742 -0.30639267 5
3.2231369 1.3515735 -0.18611002 4
3.2272022 1.3532782 -0.061675865 4
3.2428961 1.3598591 0.94021732 5
3.2530673 1.3641243 0.81309152 5
3.249954 1.3628188 0.68456143 4
3.2519174 1.3636421 0.55714786 4
3.2495716 1.3626584 0.43121555 3
3.2338269 1.3560562 0.3063904 3
3.2231798 1.3515915 0.18523771 6
3.2272162 1.3532841 0.060802467 6
0.1 0.1 0.1 -1
0.1 0.1 0.1 -1
0.1 0.1 0.1 -1
3.2007163 1.3303638 -0.55285418 128
3.2259977 1.3408718 -0.43058375 5
3.2196026 1.3382138 -0.30551976 5
3.2273672 1.341441 -0.18611002 4
3.2222052 1.3392955 -0.061499652 4
3.2382314 1.3459567 0.93763429 5
3.2483387 1.3501577 0.81084538 5
3.2451546 1.3488344 0.68265456 4
3.2561853 1.3534192 0.55714786 4
3.2538364 1.3524429 0.43121555 3
3.2472701 1.3497137 0.30726084 3
3.2274101 1.3414589 0.18523771 6
3.2406845 1.3469764 0.060976189 6
0.1 0.1 0.1 -1
0.1 0.1 0.1 -1
0.1 0.1 0.1 -1
3.2140107 1.3240634 -0.55442929 127
3.2301941 1.3307304 -0.43058375 5
3.2330017 1.3318871 -0.30639267 5
3.2223325 1.3274916 -0.18557827 4
3.2171519 1.3253576 -0.061323434 4
3.2424438 1.3357769 0.93763429 4
3.2435544 1.3362345 0.80859929 5
3.2493761 1.3386328 0.68265456 4
3.2512882 1.3394206 0.55558723 4
3.2580693 1.342214 0.43121555 3
3.2330723 1.3319162 0.30552 4
3.2316084 1.331313 0.18523771 6
3.2264109 1.3291718 0.060628746 7
0.1 0.1 0.1 -1
0.1 0.1 0.1 -1
0.1 0.1 0.1 -1
3.2181544 1.3139597 -0.55442929 153
3.2251704 1.3168243 -0.42936051 5
3.2279472 1.3179581 -0.30551976 5
3.217242 1.3135872 -0.18504652 4
3.2120433 1.3114645 -0.061147217 4
3.2376804 1.3219322 0.93505126 5
3.2567577 1.3297213 0.81084538 4
3.2535655 1.328418 0.68265456 4
3.2554801 1.3291997 0.55558723 4
3.2438908 1.3244678 0.42878616 3
3.2372408 1.3217527 0.30552 3
3.2357748 1.3211541 0.18523771 6
3.2398272 1.3228086 0.060802467 4
0.1 0.1 0.1 -1
0.1 0.1 0.1 -1
0.1 0.1 0.1 -1
3.2131124 1.3001391 -0.55285418 163
3.2200911 1.3029629 -0.42813724 7
3.2320719 1.3078108 -0.30551976 5
3.2213528 1.3034735 -0.18504652 3
3.2254159 1.3051175 -0.061323434 4
3.2418175 1.3117541 0.93505126 4
3.2518861 1.3158283 0.80859929 4
3.2486229 1.314508 0.68074769 4
3.25964 1.3189658 0.55558723 3
3.2480357 1.3142703 0.42878616 3
3.2413771 1.311576 0.30552 3
3.2399094 1.3109821 0.18523771 5
3.2346985 1.3088735 0.060628746 5
0.1 0.1 0.1 -1
0.1 0.1 0.1 -1
0.1 0.1 0.1 -1
3.2355125 1.297389 -0.55600435 120
3.2518041 1.3039217 -0.43180701 12
3.2176721 1.2902354 -0.30377394 7
3.2161634 1.2896304 -0.18451479 4
3.2202199 1.2912569 -0.061147217 4
3.2459223 1.3015633 0.93505126 5
3.2469594 1.3019791 0.80635315 4
3.2436254 1.3006421 0.67884088 4
3.2637675 1.3087188 0.55558723 4
3.2521486 1.3040599 0.42878616 3
3.2362351 1.2976788 0.30464956 3
3.2347434 1.2970806 0.18470845 6
3.2295141 1.2949839 0.060455024 6
0.1 0.1 0.1 -1
0.1 0.1 0.1 -1
0.1 0.1 0.1 -1
3.2762814 1.3018041 -0.56230468 126
3.2651081 1.2973644 -0.43303025 6
3.2402253 1.2874774 -0.30551976 22
3.2201991 1.2795202 -0.18451479 4
3.2242606 1.281134 -0.061147217 4
3.2410176 1.2877922 0.93246824 4
3.2600894 1.2953702 0.80859929 9
3.2476954 1.2904456 0.67884088 4
3.2495041 1.2911643 0.55246598 3
3.2377806 1.2865059 0.42635679 3
3.2310381 1.2838269 0.30377913 4
3.229522 1.2832246 0.1841792 7
3.2335665 1.2848316 0.060455024 6
0.1 0.1 0.1 -1
0.1 0.1 0.1 -1
0.1 0.1 0.1 -1
3.2895436 1.2951225 -0.56387979 140
3.2968726 1.298008 -0.43669999 12
3.2535233 1.280941 -0.30639267 3
3.2427862 1.2767137 -0.18557827 9
3.2189662 1.2673355 -0.060970999 5
3.2360582 1.2740648 0.92988521 4
3.2641428 1.285122 0.80859929 6
3.2517333 1.2802362 0.67884088 4
3.2535443 1.2809492 0.55246598 5
3.2510421 1.2799641 0.42757148 3
3.2350554 1.27367 0.30377913 3
3.2335374 1.2730724 0.1841792 6
3.237587 1.2746668 0.060455024 5
0.1 0.1 0.1 -1
0.1 0.1 0.1 -1
0.1 0.1 0.1 -1
3.3119962 1.2919593 -0.56702995 166
3.3286729 1.2984647 -0.44036976 12
3.2946544 1.2851945 -0.30988434 8
3.2560842 1.2701489 -0.18611002 8
3.2322466 1.2608502 -0.061147217 9
3.2400448 1.2638922 0.92988521 4
3.2500076 1.2677785 0.80410707 6
3.246594 1.2664469 0.676934 4
3.2575524 1.2707217 0.55246598 3
3.2550471 1.2697444 0.42757148 3
3.2390406 1.2635005 0.30377913 7
3.2282178 1.2592787 0.18364996 7
3.2415755 1.2644893 0.060455024 6
0.1 0.1 0.1 -1
0.1 0.1 0.1 -1
0.1 0.1 0.1 -1
3.3620946 1.2993473 -0.5749054 155
3.3419933 1.2915788 -0.44159299 6
3.2986755 1.2748377 -0.30988434 9
3.2786875 1.2671129 -0.1871735 7
3.245518 1.2542939 -0.061323434 4
3.2439995 1.2537071 0.92988521 4
3.2539744 1.257562 0.80410707 6
3.2505567 1.2562412 0.676934 4
3.252315 1.2569208 0.55090535 3
3.2497616 1.2559339 0.42635679 3
3.2337019 1.2497274 0.30290872 7
3.2321579 1.2491307 0.18364996 11
3.2548583 1.2579037 0.060628746 18
0.1 0.1 0.1 -1
0.1 0.1 0.1 -1
0.1 0.1 0.1 -1
3.3846047 1.2958404 -0.57805556 175
3.3738408 1.2917192 -0.44526273 10
3.330574 1.275154 -0.31250307 4
3.3013034 1.2639472 -0.18823698 7
3.2681172 1.2512416 -0.061675865 4
3.2388999 1.2400553 0.92730224 4
3.2488089 1.243849 0.80186099 5
3.2453196 1.2425132 0.67502713 4
3.2562478 1.2466972 0.55090535 3
3.2444212 1.2421693 0.42514208 3
3.237612 1.2395623 0.30290872 2
3.2453921 1.242541 0.1841792 10
3.2774692 1.254822 0.060976189 16
0.1 0.1 0.1 -1
0.1 0.1 0.1 -1
0.1 0.1 0.1 -1
3.4255927 1.2992085 -0.58435589 194
3.4057219 1.2916722 -0.4489325 6
3.3625069 1.2752824 -0.3151218 8
3.3239317 1.2606521 -0.18930048 6
3.3000782 1.2516052 -0.062204517 6
3.233747 1.2264481 0.92471921 5
3.2527003 1.2336365 0.80186099 4
3.249207 1.2323116 0.67502713 4
3.2601483 1.2364613 0.55090535 4
3.2575886 1.2354904 0.42635679 4
3.2508049 1.2329175 0.30377913 6
3.2679536 1.2394215 0.18523771 9
3.2907438 1.248065 0.06114991 13
0.1 0.1 0.1 -1
0.1 0.1 0.1 -1
0.1 0.1 0.1 -1
3.4664075 1.3029369 -0.59065622 179
3.4281201 1.2885456 -0.451379 9
3.3756008 1.2688049 -0.31599474 4
3.3556995 1.2613245 -0.19089571 6
3.3224955 1.2488439 -0.062556952 6
3.2464147 1.220247 0.92730224 4
3.247225 1.2205516 0.79961485 4
3.2436602 1.2192117 0.67312032 3
3.2638025 1.2267828 0.55090535 5
3.2519488 1.2223271 0.42514208 6
3.2637737 1.226772 0.30464956 3
3.2996593 1.2402604 0.18682545 8
3.3131506 1.2453315 0.061497353 12
0.1 0.1 0.1 -1
0.1 0.1 0.1 -1
0.1 0.1 0.1 -1
3.4795122 1.2960932 -0.59223127 157
3.4505293 1.2852974 -0.4538255 6
3.4166915 1.272693 -0.31948638 9
3.3875003 1.2618195 -0.19249094 6
3.3542948 1.2494507 -0.063085601 5
3.240968 1.2072372 0.92471921 4
3.2417006 1.2075101 0.79736876 5
3.2472634 1.2095822 0.67312032 4
3.258172 1.2136456 0.54934472 6
3.2741644 1.2196026 0.42757148 8
3.2954056 1.2275149 0.30726084 5
3.3126824 1.2339504 0.1873547 8
3.3449397 1.245966 0.062018517 9
0.1 0.1 0.1 -1
0.1 0.1 0.1 -1
0.1 0.1 0.1 -1
3.530118 1.3016293 -0.60010672 136
3.4920208 1.2875822 -0.45871848 8
3.4489334 1.2716948 -0.32210511 6
3.4104047 1.2574885 -0.19355442 5
3.3771818 1.2452385 -0.063438036 5
3.2358892 1.193141 0.92213619 4
3.2365441 1.1933825 0.79512262 5
3.2604671 1.2022034 0.67502713 6
3.2899814 1.2130859 0.5540266 8
3.2968168 1.2156062 0.43000087 5
3.318152 1.223473 0.30900168 5
3.3448641 1.2333224 0.18894246 8
3.3678155 1.2417849 0.06236596 10
0.1 0.1 0.1 -1
0.1 0.1 0.1 -1
0.1 0.1 0.1 -1
3.552742 1.2973073 -0.60325688 96
3.5053716 1.2800095 -0.45994174 7
3.4716263 1.2676873 -0.32385096 7
3.4330983 1.2536186 -0.1946179 5
3.3998609 1.2414817 -0.06379047 6
3.2396216 1.1829692 0.92213619 5
3.2494307 1.1865511 0.79736876 7
3.2734487 1.1953214 0.676934 8
3.3030543 1.2061322 0.55558723 7
3.3285909 1.215457 0.43364492 5
3.3500521 1.2232937 0.31161299 5
3.3768628 1.2330838 0.19053021 8
3.3998756 1.2414871 0.062887125 10
0.1 0.1 0.1 -1
0.1 0.1 0.1 -1
0.1 0.1 0.1 -1
3.5565755 1.2867603 -0.60325688 88
3.5371525 1.2797331 -0.46361148 6
3.4941075 1.2641596 -0.32559678 7
3.4555831 1.2502215 -0.19568139 5
3.4317355 1.2415935 -0.064319119 6
3.2340329 1.1700653 0.91955316 6
3.2621002 1.1802199 0.79961485 8
3.2954428 1.1922832 0.68074769 8
3.3159068 1.199687 0.55714786 7
3.3415163 1.2089524 0.43485963 5
3.3817704 1.2235162 0.31422427 4
3.3898969 1.2264564 0.19105946 8
3.4223485 1.2381973 0.063234568 9
0.1 0.1 0.1 -1
0.1 0.1 0.1 -1
0.1 0.1 0.1 -1
3.5789697 1.2828664 -0.60640705 128
3.5596197 1.2759304 -0.46605799 7
3.5259757 1.2638708 -0.32821551 7
3.4780779 1.2467021 -0.19674487 5
3.4448164 1.2347796 -0.064495333 6
3.2647727 1.1702437 0.92730224 9
3.2931066 1.1803999 0.80635315 5
3.3266883 1.1924372 0.6864683 6
3.3473463 1.1998419 0.56182981 7
3.3824639 1.2124296 0.4397184 5
3.3947635 1.2168384 0.31509468 4
3.4217219 1.2265016 0.1926472 8
3.4448314 1.234785 0.063582011 9
0.1 0.1 0.1 -1
0.1 0.1 0.1 -1
0.1 0.1 0.1 -1
3.6111252 1.2808948 -0.61113226 105
3.5918927 1.2740729 -0.46972772 6
3.5583136 1.2621621 -0.33083427 7
3.510427 1.2451763 -0.1983401 5
3.4771616 1.2333769 -0.065023988 6
3.2777402 1.1626405 0.92988521 7
3.3153706 1.1759882 0.81084538 8
3.3398759 1.1846806 0.68837512 7
3.3792343 1.1986412 0.56651169 6
3.4051757 1.2078428 0.44214779 4
3.4269469 1.2155652 0.31770596 5
3.4540048 1.2251629 0.19423497 10
3.4771769 1.2333822 0.064103171 8
0.1 0.1 0.1 -1
0.1 0.1 0.1 -1
0.1 0.1 0.1 -1
3.6430836 1.2793599 -0.61585754 126
3.6239705 1.2726479 -0.47339749 6
3.5904586 1.2608793 -0.333453 7
3.5425868 1.2440679 -0.19993533 5
3.518754 1.2356985 -0.065728851 6
3.3087213 1.1619402 0.93763429 7
3.3374367 1.1720244 0.8153376 8
3.3621054 1.1806873 0.69218886 6
3.4016223 1.1945647 0.56963301 6
3.4276838 1.2037169 0.44457716 4
3.4589467 1.2146956 0.32031724 5
3.4861023 1.224232 0.19582272 9
3.5093355 1.232391 0.064624339 8
0.1 0.1 0.1 -1
0.1 0.1 0.1 -1
0.1 0.1 0.1 -1
3.66574 1.2743939 -0.61900771 114
3.6654489 1.2742928 -0.47829047 6
3.6226304 1.2594069 -0.33607173 7
3.574774 1.2427697 -0.20153056 6
3.5415065 1.2312043 -0.066081285 6
3.3306053 1.1578845 0.94280028 7
3.3687146 1.1711332 0.82207596 6
3.4028866 1.1830131 0.69981629 6
3.4240177 1.1903592 0.57275426 6
3.4501996 1.1994615 0.44700655 4
3.4815648 1.2103655 0.32205811 5
3.5182278 1.2231114 0.19741046 9
3.541522 1.2312096 0.0651455 8
0.1 0.1 0.1 -1
0.1 0.1 0.1 -1
0.1 0.1 0.1 -1
3.6977386 1.2725117 -0.62373292 91
3.6788189 1.2660007 -0.47951373 6
3.6359885 1.2512615 -0.33694467 7
3.5975454 1.2380319 -0.20259404 5
3.5642657 1.2265793 -0.06643372 6
3.3616309 1.1568462 0.95054936 6
3.4000196 1.1700569 0.82881427 10
3.4344332 1.1818997 0.70553684 5
3.45576 1.189239 0.57743621 6
3.4821081 1.1983062 0.45065063 4
3.50419 1.2059053 0.32379895 5
3.5409381 1.2185515 0.19846897 8
3.5737355 1.2298383 0.065666668 8
0.1 0.1 0.1 -1
0.1 0.1 0.1 -1
0.1 0.1 0.1 -1
3.748457 1.276809 -0.63160837 146
3.7203574 1.2672375 -0.48440671 7
3.668191 1.2494686 -0.3395634 7
3.6392272 1.2396028 -0.20472102 5
3.6059594 1.228271 -0.06713859 6
3.3835382 1.1525093 0.95571536 9
3.4313509 1.1687955 0.83555257 6
3.4567137 1.1774346 0.70935059 6
3.478179 1.1847461 0.58055747 6
3.5234387 1.2001626 0.45550939 4
3.545681 1.2077389 0.32728067 5
3.5825593 1.2203004 0.20058598 9
3.5965106 1.2250526 0.066014111 9
0.1 0.1 0.1 -1
0.1 0.1 0.1 -1
0.1 0.1 0.1 -1
3.7618074 1.2681812 -0.63318348 121
3.7619395 1.2682258 -0.48929971 6
3.7098575 1.2506678 -0.34305504 9
3.6620288 1.2345438 -0.2057845 5
3.6287494 1.2233247 -0.067491017 5
3.4146054 1.1511325 0.96346444 7
3.4627075 1.1673486 0.84229094 7
3.488302 1.175977 0.71507114 6
3.5099635 1.1832795 0.58523935 6
3.5365977 1.1922585 0.45672408 4
3.5683379 1.2029587 0.32902151 5
3.6053009 1.2154197 0.20164447 10
3.6287651 1.22333 0.066535272 8
0.1 0.1 0.1 -1
0.1 0.1 0.1 -1
0.1 0.1 0.1 -1
3.8030219 1.2695217 -0.63948381 106
3.7845144 1.2633436 -0.49174622 6
3.7418997 1.249118 -0.3456738 6
3.7130358 1.2394826 -0.20844322 5
3.6702991 1.2252163 -0.068195887 5
3.4363329 1.1471139 0.96863043 7
3.484642 1.1632404 0.84678316 7
3.5103986 1.1718385 0.71888483 6
3.5415666 1.182243 0.5899213 6
3.5777805 1.1943319 0.46158284 5
3.6002398 1.2018292 0.33163279 5
3.6278355 1.2110412 0.20270297 9
3.660831 1.2220557 0.067056432 8
0.1 0.1 0.1 -1
0.1 0.1 0.1 -1
0.1 0.1 0.1 -1
3.8255243 1.2644305 -0.64263397 140
3.8259401 1.264568 -0.49663922 7
3.7739651 1.247389 -0.34829253 5
3.7356598 1.2347281 -0.20950671 5
3.7118914 1.2268721 -0.068900757 6
3.4672391 1.1460085 0.97637951 7
3.5158346 1.1620704 0.85352147 7
3.5325012 1.1675792 0.72269857 6
3.5731943 1.1810292 0.59460318 6
3.6095817 1.1930562 0.46522692 4
3.6416249 1.2036473 0.33511451 4
3.6788204 1.2159412 0.20534922 8
3.6834276 1.217464 0.067403875 9
0.1 0.1 0.1 -1
0.1 0.1 0.1 -1
0.1 0.1 0.1 -1
3.8766289 1.2670777 -0.65050936 109
3.8584137 1.261124 -0.50030899 6
3.8064876 1.2441519 -0.35091126 6
3.7682087 1.2316405 -0.21110193 5
3.7444506 1.223875 -0.069429405 5
3.4893856 1.140507 0.98154551 7
3.5474558 1.1594872 0.86025977 7
3.5830076 1.1711074 0.73223281 5
3.605257 1.1783797 0.59928513 6
3.6323879 1.1872474 0.46765631 4
3.6645343 1.1977545 0.33685538 5
3.7113078 1.2130424 0.20693697 9
3.7349632 1.2207742 0.068272486 6
0.1 0.1 0.1 -1
0.1 0.1 0.1 -1
0.1 0.1 0.1 -1
3.9087787 1.264008 -0.65523463 137
3.9001303 1.2612114 -0.50520194 6
3.8482916 1.2444479 -0.35440293 6
3.8100653 1.2320864 -0.21322891 5
3.7673037 1.2182584 -0.06978184 5
3.5297194 1.1414291 0.99187756 6
3.5696244 1.1543335 0.86475199 7
3.6053495 1.1658862 0.73604655 6
3.6277378 1.173126 0.60240638 6
3.664433 1.1849923 0.47130036 5
3.6967156 1.1954317 0.33946666 4
3.7531064 1.2136673 0.20905398 9
3.7673202 1.2182636 0.068793647 9
0.1 0.1 0.1 -1
0.1 0.1 0.1 -1
0.1 0.1 0.1 -1
3.9505734 1.2630683 -0.66153497 129
3.9421053 1.260361 -0.51009494 6
3.8998404 1.2468481 -0.35876751 5
3.8616877 1.23465 -0.21588762 6
3.8189406 1.220983 -0.070662923 4
3.5610905 1.1385437 0.99962664 7
3.6012776 1.1513923 0.87149036 6
3.6372466 1.1628922 0.74176711 6
3.659833 1.1701136 0.60708833 6
3.7061603 1.1849252 0.47615916 4
3.7481036 1.1983352 0.34381878 5
3.7761338 1.207297 0.21011248 8
3.7999101 1.2148986 0.069314815 8
0.1 0.1 0.1 -1
0.1 0.1 0.1 -1
0.1 0.1 0.1 -1
4.0015993 1.2655398 -0.66941035 128
3.983897 1.2599412 -0.51498795 5
3.9322326 1.2436019 -0.36138624 8
3.8941104 1.2315454 -0.21748285 5
3.8418236 1.2150093 -0.071015358 6
3.5922825 1.1360898 1.0073757 8
3.6327498 1.1488879 0.87822866 7
3.6689608 1.16034 0.74748766 6
3.7105796 1.1735022 0.61489153 7
3.7382565 1.1822553 0.4798032 6
3.7613482 1.1895583 0.34468922 3
3.8275139 1.2104837 0.21275873 7
3.8323073 1.2119997 0.069835976 9
0.1 0.1 0.1 -1
0.1 0.1 0.1 -1
0.1 0.1 0.1 -1
4.0149803 1.2559103 -0.67098546 141
3.9973078 1.2503822 -0.51621121 13
3.9646428 1.2401644 -0.36400497 5
3.9265518 1.2282492 -0.21907808 5
3.9124191 1.2238286 -0.072248876 5
3.6327143 1.1363351 1.0177077 7
3.6642416 1.146197 0.88496703 6
3.6913257 1.1546692 0.75130141 6
3.7331021 1.167737 0.61801279 6
3.7608988 1.176432 0.4822326 6
3.8126054 1.1926062 0.34904134 3
3.8598897 1.207397 0.21434648 8
3.8933513 1.2178639 0.070878305 6
0.1 0.1 0.1 -1
0.1 0.1 0.1 -1
0.1 0.1 0.1 -1
0.1 0.1 0.1 -1
0.1 0.1 0.1 -1
4.0256205 1.2453678 -0.36924246 12
3.9876297 1.2336149 -0.22226854 3
3.9353483 1.2174412 -0.072601303 5
3.6547246 1.1306273 1.0228738 8
3.6864426 1.1404396 0.88945919 8
3.7418251 1.1575727 0.76083571 5
3.774497 1.1676801 0.62425536 6
3.8119888 1.1792786 0.48830608 5
3.8544016 1.1923994 0.35252306 4
3.9018233 1.2070699 0.21646349 8
3.9258137 1.2144915 0.071399473 6
0.1 0.1 0.1 -1
0.1 0.1 0.1 -1
0.1 0.1 0.1 -1
3.2105079 0.98277628 -0.5355283 64
3.2361639 0.99062991 -0.417128 21
114.30632 34.990582 -10.474963 -1
4.0294662 1.2334697 -0.2243955 11
3.9771852 1.2174658 -0.073306173 2
3.6857758 1.1282617 1.0306228 7
3.7457163 1.1466103 0.90293586 6
3.7827895 1.1579589 0.76846313 5
3.8062797 1.1651495 0.62893724 6
3.8439448 1.1766793 0.49195012 5
3.8769739 1.1867899 0.35426393 4
3.9435821 1.2071794 0.21858048 7
3.9580815 1.2116179 0.071920633 6
0.1 0.1 0.1 -1
0.1 0.1 0.1 -1
0.1 0.1 0.1 -1
3.1661537 0.95893377 -0.52765286 66
3.2295902 0.97814679 -0.41590476 9
3.2511404 0.98467374 -0.29766354 1
4.0713367 1.2330869 -0.22652248 6
4.0190568 1.2172529 -0.074011043 2
3.7168448 1.1257217 1.0383718 8
3.7770803 1.1439654 0.90967423 10
3.8049986 1.1524209 0.77227682 5
3.8380802 1.1624403 0.63361919 6
3.8854182 1.1767776 0.49680892 4
3.9281499 1.1897198 0.35861605 4
3.9949329 1.2099464 0.22122674 6
4.0095053 1.2143599 0.072789237 5
0.1 0.1 0.1 -1
0.1 0.1 0.1 -1
0.1 0.1 0.1 -1
3.1693161 0.94842917 -0.52765286 156
3.2423244 0.97027707 -0.417128 6
3.2830188 0.98245507 -0.30028227 23
4.0754037 1.2195791 -0.22652248 2
4.0613861 1.2153844 -0.074715905 3
3.7575777 1.1244686 1.0487039 8
3.8088593 1.1398147 0.91641253 7
3.8370125 1.1482397 0.77799737 6
3.8986909 1.1666971 0.64298302 6
3.9273365 1.1752695 0.50166768 4
3.9702489 1.1881112 0.36209777 6
4.0467572 1.2110065 0.22387299 7
4.051825 1.2125231 0.073484123 4
0.1 0.1 0.1 -1
0.1 0.1 0.1 -1
0.1 0.1 0.1 -1
3.1628106 0.93566638 -0.52607781 97
3.2453566 0.96008629 -0.417128 9
3.2574313 0.96365839 -0.29766354 18
4.0696392 1.2039371 -0.22599073 3
4.0747724 1.2054555 -0.074892126 2
3.7888832 1.1208799 1.056453 7
3.8404541 1.1361363 0.92315084 6
3.8876672 1.1501034 0.78753167 5
3.9212804 1.1600474 0.64610428 6
3.9595637 1.171373 0.50531173 4
4.0312786 1.1925887 0.36732033 5
4.0696931 1.203953 0.22493149 4
4.0939655 1.2111335 0.074179009 3
0.1 0.1 0.1 -1
0.1 0.1 0.1 -1
0.1 0.1 0.1 -1
3.1657345 0.92572552 -0.52607781 154
3.2102528 0.93874359 -0.41223502 11
3.2317584 0.9450323 -0.29504481 4
4.0829859 1.1939486 -0.22652248 2
4.0785389 1.1926483 -0.074892126 2
3.8387475 1.1225283 1.069368 7
3.8907683 1.1377403 0.93438143 8
3.9289489 1.148905 0.7951591 7
3.9628272 1.1588118 0.65234685 4
4.010859 1.1728573 0.5113852 4
4.0636902 1.1883062 0.36993161 3
4.1022091 1.1995699 0.22651924 5
4.0977502 1.198266 0.074179009 2
0.1 0.1 0.1 -1
0.1 0.1 0.1 -1
0.1 0.1 0.1 -1
3.1591401 0.91303366 -0.52450269 96
3.2036514 0.92589802 -0.41101176 19
3.2442815 0.93764067 -0.29591772 20
4.0771236 1.1783432 -0.22599073 2
4.0726604 1.1770532 -0.074715905 3
3.8700974 1.1185099 1.0771171 8
3.9317689 1.1363337 0.94336581 8
3.9702611 1.1474584 0.80278653 6
4.0044045 1.1573263 0.65858936 4
4.0622025 1.1740308 0.51745868 4
4.1056848 1.1865977 0.37341332 4
4.1059575 1.1866766 0.22651924 4
4.0918889 1.1826105 0.074005291 3
0.1 0.1 0.1 -1
0.1 0.1 0.1 -1
0.1 0.1 0.1 -1
3.1714883 0.9058165 -0.52607781 223
3.2160876 0.9185546 -0.41223502 88
3.2472112 0.92744386 -0.29591772 88
4.0712032 1.1627862 -0.22545899 3
4.0763383 1.1642529 -0.074715905 4
3.910749 1.1169585 1.0874491 8
3.9727986 1.1346806 0.95235026 8
4.0116024 1.1457635 0.81041396 5
4.0460114 1.1555911 0.66483194 4
4.1040478 1.1721671 0.52231741 2
4.1093926 1.1736935 0.37341332 4
4.0904613 1.1682866 0.22546075 5
4.0955839 1.1697497 0.074005291 3
0.1 0.1 0.1 -1
0.1 0.1 0.1 -1
0.1 0.1 0.1 -1
0.1 0.1 0.1 -1
3.2189574 0.90844643 -0.41223502 1
3.2117596 0.90641505 -0.29242605 1
4.0748363 1.1499904 -0.22545899 3
4.0799756 1.1514409 -0.074715905 2
3.9607263 1.1177866 1.1003642 7
4.0232344 1.1354276 0.96358085 7
4.0624199 1.1464863 0.81994826 6
4.0971527 1.1562885 0.67263514 3
4.1268158 1.16466 0.52474684 2
4.1226468 1.1634835 0.37428373 3
4.0941114 1.1554303 0.22546075 5
4.0992389 1.1568773 0.074005291 3
0.1 0.1 0.1 -1
0.1 0.1 0.1 -1
0.1 0.1 0.1 -1
2.4350371 0.67941648 -0.40322131 141
3.2407582 0.9042263 -0.41468152 8
3.2720068 0.91294509 -0.29766354 31
4.0493751 1.129844 -0.22386377 8
4.0737433 1.1366432 -0.074539691 3
4.001246 1.1164153 1.1106962 6
4.0735154 1.1365796 0.97481138 8
4.1036248 1.1449807 0.82757568 3
4.1291075 1.1520907 0.67731702 7
4.1206923 1.1497427 0.52353209 2
4.1164856 1.148569 0.37341332 4
4.0782843 1.1379102 0.22440225 6
4.0930223 1.1420224 0.073831566 4
0.1 0.1 0.1 -1
0.1 0.1 0.1 -1
0.1 0.1 0.1 -1
2.4370422 0.67218858 -0.40322131 138
3.2051563 0.88405097 -0.40978852 7
3.1018429 0.85555488 -0.2819511 12
115.51665 31.861975 -6.3809147 -1
4.0674596 1.1218927 -0.074363478 3
4.0604181 1.1199505 1.1261944 9
4.1144447 1.1348523 0.98379582 3
4.1353936 1.1406304 0.83329624 4
4.1229858 1.137208 0.67575639 3
4.1145167 1.1348722 0.52231741 2
4.1102715 1.1337012 0.37254289 4
4.091269 1.1284599 0.22493149 4
4.0867543 1.1272147 0.073657848 3
0.1 0.1 0.1 -1
0.1 0.1 0.1 -1
0.1 0.1 0.1 -1
2.4106729 0.65632093 -0.39849606 127
3.169765 0.86298853 -0.40489551 11
3.066215 0.83479643 -0.27845943 6
3.237407 0.88140452 -0.17866562 38
4.0904522 1.1136514 -0.074715905 12
4.1013951 1.1166308 1.1365263 4
4.1369901 1.1263217 0.98828804 7
4.1296816 1.1243318 0.83138937 5
4.1172037 1.1209347 0.67419577 2
4.1182575 1.1212217 0.52231741 2
4.1140084 1.1200649 0.37254289 3
4.0853534 1.1122633 0.22440225 4
4.0904698 1.1136563 0.073657848 4
0.1 0.1 0.1 -1
0.1 0.1 0.1 -1
0.1 0.1 0.1 -1
2.4127228 0.64874434 -0.39849606 134
3.1532917 0.84787196 -0.40244901 11
3.0495822 0.8199861 -0.27671361 12
3.0472934 0.81937069 -0.16803075 1
4.0746193 1.095603 -0.074363478 28
4.1235418 1.1087574 1.1416924 7
4.1310978 1.1107891 0.9860419 3
4.1331935 1.1113526 0.83138937 3
4.1207047 1.1079946 0.67419577 3
4.1217599 1.1082783 0.52231741 2
4.1078868 1.104548 0.37167245 3
4.0888276 1.0994233 0.22440225 4
4.0939484 1.1008002 0.073657848 4
0.1 0.1 0.1 -1
0.1 0.1 0.1 -1
0.1 0.1 0.1 -1
2.4052045 0.63862711 -0.39692098 134
3.0408294 0.80739748 -0.38777003 13
3.0232587 0.80273211 -0.27409488 7
3.0981097 0.8226065 -0.17068948 15
4.068378 1.080231 -0.074187256 4
4.1363416 1.0982766 1.1442754 7
4.1345673 1.0978054 0.9860419 3
4.1271768 1.0958431 0.8294825 3
4.1241655 1.0950435 0.67419577 3
4.1156278 1.0927767 0.52110273 2
4.1017079 1.0890807 0.37080204 3
4.0922613 1.0865725 0.22440225 4
4.0973864 1.0879333 0.073657848 4
0.1 0.1 0.1 -1
0.1 0.1 0.1 -1
0.1 0.1 0.1 -1
2.3880942 0.62605935 -0.39377081 1
3.0049491 0.78777307 -0.38287702 11
3.0257657 0.79323035 -0.27409488 16
3.0813599 0.80780482 -0.16962598 9
4.0620799 1.064909 -0.074011043 6
4.1210818 1.0803769 1.1391094 6
4.1285696 1.0823398 0.98379582 3
4.130599 1.0828718 0.8294825 3
4.1180305 1.079577 0.67263514 3
4.1286421 1.0823588 0.52231741 3
4.1051092 1.0761895 0.37080204 2
4.0859952 1.0711786 0.22387299 4
4.0911126 1.0725201 0.073484123 5
0.1 0.1 0.1 -1
0.1 0.1 0.1 -1
0.1 0.1 0.1 -1
2.3804891 0.61607963 -0.39219573 155
2.9978008 0.77584219 -0.38165379 8
3.0282426 0.78372073 -0.27409488 10
3.0742152 0.79561853 -0.16909425 5
3.3781581 0.87428015 -0.061499652 7
4.1244555 1.0674248 1.1391094 5
4.1319494 1.0693642 0.98379582 3
4.1244769 1.0674304 0.82757568 3
4.1309643 1.0691092 0.67419577 3
4.112803 1.0644091 0.51988804 3
4.0988255 1.0607916 0.36993161 3
4.0893402 1.0583369 0.22387299 4
4.0847821 1.0571572 0.073310405 4
0.1 0.1 0.1 -1
0.1 0.1 0.1 -1
0.1 0.1 0.1 -1
2.353709 0.60126555 -0.38747048 206
2.6636598 0.68044388 -0.33884007 29
3.0113862 0.76927215 -0.27234906 6
3.0670242 0.78348511 -0.1685625 5
3.3615134 0.85871369 -0.061147217 4
4.1277885 1.0544622 1.1391094 5
4.1258473 1.0539663 0.98154968 3
4.12781 1.0544677 0.82757568 3
4.1151624 1.0512367 0.67107451 3
4.1065097 1.0490264 0.51867336 2
4.102138 1.0479096 0.36993161 3
4.0829697 1.043013 0.22334374 5
4.0977702 1.0467939 0.073484123 4
0.1 0.1 0.1 -1
0.1 0.1 0.1 -1
0.1 0.1 0.1 -1
2.3650577 0.59669513 -0.38904557 130
2.5213168 0.63611865 -0.32049131 23
3.0329735 0.76520771 -0.27409488 27
3.0790179 0.77682447 -0.16909425 5
3.3543518 0.84629017 -0.060970999 9
4.121532 1.0398469 1.1365263 4
4.1384048 1.0441037 0.98379582 3
4.1214023 1.0398141 0.82566881 3
4.1182632 1.0390222 0.67107451 3
4.1096039 1.0368375 0.51867336 2
4.1148887 1.0381707 0.37080204 3
4.0957289 1.0333369 0.22387299 5
4.0911636 1.0321851 0.073310405 4
0.1 0.1 0.1 -1
0.1 0.1 0.1 -1
0.1 0.1 0.1 -1
2.3764 0.59206259 -0.39062065 93
2.4846711 0.61903751 -0.31559831 27
3.0352306 0.75620538 -0.27409488 23
3.0619299 0.76285726 -0.16803075 5
3.2307236 0.80491096 -0.05868018 6
4.124599 1.0276135 1.1365263 4
4.1320291 1.0294646 0.98154968 3
4.1244693 1.0275811 0.82566881 3
4.1213279 1.0267985 0.67107451 3
4.1126623 1.0246395 0.51867336 3
4.0986176 1.0211403 0.36906117 3
4.0793972 1.0163518 0.2228145 4
4.084506 1.0176246 0.07313668 4
0.1 0.1 0.1 -1
0.1 0.1 0.1 -1
0.1 0.1 0.1 -1
2.34958 0.5771122 -0.38589537 60
2.4674335 0.60605979 -0.31315181 43
3.0377216 0.74613601 -0.27409488 25
3.0644426 0.75269932 -0.16803075 4
3.2333751 0.79419309 -0.05868018 5
4.127984 1.0139302 1.1365263 4
4.1448832 1.0180809 0.98379582 4
4.1278543 1.0138983 0.82566881 3
4.115118 1.01077 0.66951382 4
4.1063981 1.0086281 0.51745868 3
4.1019812 1.0075432 0.36906117 3
4.0827451 1.0028185 0.2228145 4
4.0781484 1.0016893 0.072962962 4
0.1 0.1 0.1 -1
0.1 0.1 0.1 -1
0.1 0.1 0.1 -1
2.341784 0.56740254 -0.38432029 132
2.4403877 0.59129375 -0.30948207 41
3.0497324 0.73893487 -0.27496779 28
3.0667922 0.7430684 -0.16803075 4
3.2358541 0.78403121 -0.05868018 10
4.1217604 0.99868184 1.1339434 4
4.1291203 1.0004652 0.9793036 4
4.1214786 0.99861366 0.82376194 4
4.1182733 0.99783689 0.66951382 3
4.1095467 0.99572253 0.51745868 3
4.1051264 0.99465156 0.36906117 2
4.0858755 0.98998719 0.2228145 4
4.0909925 0.99122697 0.07313668 4
0.1 0.1 0.1 -1
0.1 0.1 0.1 -1
0.1 0.1 0.1 -1
2.343555 0.5600428 -0.38432029 135
2.4422333 0.58362412 -0.30948207 55
3.0714169 0.73398101 -0.27671361 74
3.0691116 0.73343015 -0.16803075 4
116.69554 27.886906 -2.1146011 -1
4.1248775 0.98572803 1.1339434 4
4.1322427 0.98748821 0.9793036 4
4.1245956 0.98566073 0.82376194 3
4.1213875 0.9848941 0.66951382 3
4.1126547 0.9828071 0.51745868 2
4.1082311 0.98175001 0.36906117 2
4.0792532 0.97482514 0.22228524 4
4.0940862 0.97836989 0.07313668 5
0.1 0.1 0.1 -1
0.1 0.1 0.1 -1
0.1 0.1 0.1 -1
2.335691 0.55041248 -0.38274521 129
2.4247341 0.57139581 -0.30703557 53
3.0543151 0.71975839 -0.27496779 98
3.0714006 0.72378463 -0.16803075 6
3.1823251 0.74992436 -0.05762288 4
4.1279535 0.97276449 1.1339434 5
4.135325 0.97450155 0.9793036 5
4.1181169 0.97044647 0.82185507 3
4.1148472 0.9696759 0.66795319 3
4.1060605 0.96760529 0.51624399 2
4.1015983 0.96655381 0.36819077 3
4.0920153 0.96429551 0.2228145 4
4.0874081 0.96320975 0.072962962 4
0.1 0.1 0.1 -1
0.1 0.1 0.1 -1
0.1 0.1 0.1 -1
2.3277895 0.54083711 -0.38117012 128
2.4168499 0.56152934 -0.30581233 28
3.0468578 0.70790499 -0.27409488 48
3.0833859 0.71639192 -0.1685625 9
3.1944044 0.74218583 -0.057799097 3
4.1121693 0.95541877 1.1287774 4
4.1193824 0.95709467 0.97481138 4
4.1211452 0.95750427 0.82185507 3
4.1178732 0.95674396 0.66795319 3
4.1090798 0.95470095 0.51624399 2
4.1046147 0.95366353 0.36819077 3
4.0950246 0.95143533 0.2228145 4
4.0904136 0.95036405 0.072962962 4
0.1 0.1 0.1 -1
0.1 0.1 0.1 -1
0.1 0.1 0.1 -1
2.3294773 0.53352153 -0.38117012 127
2.418602 0.5539338 -0.30581233 22
3.0684876 0.70277745 -0.2758407 19
3.0856214 0.70670164 -0.1685625 6
3.2064664 0.73437881 -0.057975315 3
4.1151505 0.94249529 1.1287774 4
4.1223688 0.94414854 0.97481138 4
4.1241331 0.9445526 0.82185507 3
4.1208587 0.9438026 0.66795319 3
4.1120591 0.94178724 0.51624399 3
4.0978799 0.93853974 0.36732033 2
4.0785251 0.93410701 0.221756 4
4.0738869 0.93304467 0.072615519 4
0.1 0.1 0.1 -1
0.1 0.1 0.1 -1
0.1 0.1 0.1 -1
2.3311419 0.52620059 -0.38117012 141
2.4106491 0.54414749 -0.30458906 12
3.0706801 0.69313407 -0.2758407 20
3.0878263 0.69700438 -0.1685625 5
3.2087576 0.72430182 -0.057975315 4
4.1180911 0.92956257 1.1287774 4
4.1253147 0.93119311 0.97481138 4
4.1270804 0.93159163 0.82185507 3
4.1238031 0.93085188 0.66795319 3
4.1053152 0.9266786 0.51502925 2
4.1008081 0.92566127 0.36732033 3
4.0911808 0.92348814 0.22228524 4
4.076798 0.92024159 0.072615519 4
0.1 0.1 0.1 -1
0.1 0.1 0.1 -1
0.1 0.1 0.1 -1
0.1 0.1 0.1 -1
2.4123466 0.53657156 -0.30458906 26
3.0825667 0.68564677 -0.27671361 19
3.1094961 0.69163656 -0.16962598 4
3.2207773 0.71638852 -0.058151532 2
4.1209912 0.91662061 1.1287774 4
4.1187077 0.91611272 0.97256523 4
4.1204042 0.91649008 0.81994826 3
4.1267071 0.91789204 0.66795319 3
4.1178951 0.915932 0.51624399 2
4.1134205 0.91493666 0.36819077 3
4.0843139 0.90846258 0.221756 5
4.0894289 0.90960032 0.072789237 22
0.1 0.1 0.1 -1
0.1 0.1 0.1 -1
0.1 0.1 0.1 -1
2.3729873 0.51999861 -0.38747048 186
2.4140205 0.52899033 -0.30458906 30
3.1528223 0.69088578 -0.28282401 16
3.1116536 0.68186438 -0.16962598 5
3.223012 0.70626664 -0.058151532 10
4.1049771 0.89953387 1.1236113 4
4.131084 0.90525478 0.97481138 4
4.1232629 0.90354091 0.81994826 3
4.1295705 0.90492308 0.66795319 3
4.1207523 0.90299076 0.51624399 3
4.0968122 0.89774466 0.36644989 3
4.0871477 0.8956269 0.221756 4
117.20094 25.682535 2.084656 -1
0.1 0.1 0.1 -1
0.1 0.1 0.1 -1
0.1 0.1 0.1 -1
2.3649561 0.51045758 -0.38589537 139
2.4059689 0.51930988 -0.30336583 73
3.1452396 0.67887568 -0.2819511 39
3.1430635 0.67840606 -0.17122121 7
3.2154415 0.69402826 -0.057975315 6
4.1172261 0.88867152 1.1261944 4
4.1339078 0.89227211 0.97481138 3
4.1260815 0.89058286 0.81994826 3
4.1227379 0.88986123 0.66639256 3
4.1138663 0.88794637 0.51502925 3
4.0898743 0.88276786 0.36557949 3
4.0899415 0.88278234 0.221756 4
3.2545493 0.70246935 0.057849206 9
0.1 0.1 0.1 -1
0.1 0.1 0.1 -1
0.1 0.1 0.1 -1
2.3471422 0.49932867 -0.38274521 106
2.4172068 0.51423413 -0.30458906 39
116.92532 24.874575 -10.474963 -1
3.164597 0.67323321 -0.17228471 4
3.2174866 0.68448484 -0.057975315 8
4.1103954 0.87444133 1.1236113 4
4.1270056 0.87797505 0.97256523 4
4.1191039 0.87629402 0.81804138 3
4.1156988 0.87556958 0.66483194 3
4.1067743 0.87367094 0.51381457 3
4.1022196 0.87270206 0.36644989 3
4.0730076 0.86648756 0.22069749 5
3.2566192 0.69280982 0.057849206 4
0.1 0.1 0.1 -1
0.1 0.1 0.1 -1
0.1 0.1 0.1 -1
2.3872738 0.50046712 -0.38904557 72
2.4090083 0.50502348 -0.30336583 61
2.5447197 0.53347403 -0.22783045 46
3.1861274 0.66793847 -0.17334819 10
3.2292891 0.67698681 -0.058151532 6
4.1129718 0.86224174 1.1236113 4
4.1295924 0.86572611 0.97256523 4
4.121686 0.86406851 0.81804138 4
4.1279459 0.86538088 0.66639256 3
4.1190629 0.86351871 0.51502925 3
4.0950408 0.85848266 0.36557949 2
4.0755606 0.85439891 0.22069749 5
3.2293031 0.67698979 0.057328042 1
0.1 0.1 0.1 -1
0.1 0.1 0.1 -1
0.1 0.1 0.1 -1
2.3405616 0.48257726 -0.38117012 67
2.3912287 0.49302384 -0.30091932 47
2.5464749 0.52503246 -0.22783045 40
3.2078853 0.66140217 -0.17441167 4
3.2119312 0.66223639 -0.057799097 9
4.1158085 0.84859788 1.1236113 4
4.1324406 0.85202712 0.97256523 4
