# .PCD v0.7 - Point Cloud Data file format
VERSION 0.7
FIELDS x y z intensity
SIZE 4 4 4 4
TYPE F F F F
COUNT 1 1 1 1
WIDTH 1423
HEIGHT 1
VIEWPOINT 0 0 0 1 0 0 0
POINTS 1423
DATA ascii
4.6544919 6.3829017 -0.69222051 17
4.6657171 6.3982949 -0.42167214 5
4.6833839 6.4225221 -0.14009233 6
4.6845293 6.4240932 2.1258209 24
4.7366676 6.4955926 1.85304 11
4.7601109 6.5277414 1.5693427 14
4.7663908 6.5363536 1.2781628 10
4.748848 6.5122957 0.98632967 3
4.7191591 6.4715829 0.69982356 2
4.7128487 6.4629283 0.42392972 7
4.6951861 6.4387074 0.13845591 5
1.165913 1.58836 -0.52854455 128
1.2394783 1.6885804 -0.48465386 88
1.3415992 1.8277029 -0.44239524 115
2.1503918 2.9295466 -0.57963061 129
3.5765839 4.8724928 -0.74495882 9
4.6568375 6.3441563 -0.68960178 6
4.662159 6.3514056 -0.41954514 6
4.6739554 6.3674769 -0.13921124 5
4.7332706 6.4482832 2.138736 18
4.7801151 6.5121012 1.8620244 106
4.7689772 6.4969282 1.5655291 17
4.757678 6.4815345 1.2703596 2
4.7516627 6.47334 0.98268557 3
4.733572 6.4486942 0.69895315 8
4.7094932 6.4158907 0.42181271 7
4.6858087 6.383625 0.13758729 5
1.1766369 1.5924574 -0.53113544 127
1.2563565 1.7003496 -0.48916227 123
1.3589997 1.8392668 -0.44622549 106
2.230006 3.0180843 -0.5985316 139
3.5918734 4.8612323 -0.74495882 8
4.6530652 6.2974467 -0.68611008 5
4.6642866 6.312634 -0.41794991 5
4.6701698 6.3205957 -0.13850638 6
4.7764688 6.4644608 2.1490681 49
4.7889686 6.4813776 1.8575323 11
4.7718639 6.4582281 1.5598085 4
4.7780166 6.4665556 1.2703596 11
4.7424831 6.4184642 0.97661215 3
4.7242079 6.3937306 0.694601 7
4.7058887 6.3689375 0.41969571 8
4.6880155 6.344748 0.13706614 4
1.1873981 1.5965031 -0.53372633 125
1.2733206 1.7120292 -0.49367067 106
1.3647712 1.8349884 -0.44622549 77
2.3396637 3.1457691 -0.62530804 72
3.6308198 4.8817792 -0.74985182 32
4.6490459 6.250824 -0.68261844 7
4.6662173 6.2739115 -0.41635469 5
4.6780696 6.2898474 -0.13815394 5
4.7909884 6.4416714 2.1464851 20
4.7918606 6.4428439 1.850794 34
4.7686958 6.4116983 1.5521811 4
4.7570453 6.3960333 1.2594352 6
4.7448525 6.3796401 0.97296804 4
4.7323804 6.3628707 0.69286013 6
4.7020359 6.3220711 0.4175787 7
4.6840568 6.2978978 0.13637125 4
1.1924077 1.5927649 -0.53372633 130
1.272854 1.7002213 -0.49141645 92
1.3587651 1.8149776 -0.44239524 81
2.4087169 3.2174563 -0.64105886 142
0.1 0.1 0.1 -1
4.6447802 6.2042894 -0.6791268 27
4.6619658 6.2272458 -0.41422772 5
4.6678462 6.2350998 -0.13727286 5
4.7996225 6.4111214 2.141319 13
4.794558 6.404356 1.8440557 9
4.7770491 6.3809686 1.5483674 6
4.7593565 6.3573356 1.2547532 5
4.7410769 6.3329182 0.96810931 3
4.7224951 6.3080978 0.68850803 7
4.7039204 6.2832861 0.41599095 8
4.6918349 6.2671432 0.1360238 6
1.2032183 1.5967246 -0.53631723 141
1.2840524 1.703995 -0.49367067 136
1.3762739 1.826377 -0.44622549 80
2.4128699 3.2019868 -0.63948381 40
3.5419621 4.7003422 -0.72538686 32
4.6402678 6.1578431 -0.67563516 83
4.6514583 6.1726937 -0.411569 7
4.6753769 6.2044344 -0.13692042 7
4.8022985 6.3728652 2.13357 11
4.8029251 6.3736973 1.8395634 31
4.7734413 6.3345704 1.5407399 5
4.7555275 6.3107986 1.2485107 4
4.7430282 6.2942109 0.9644652 3
4.7123127 6.2534504 0.68415588 6
4.7056074 6.2445521 0.4144032 9
4.693449 6.2284169 0.13550264 5
1.2082286 1.5929368 -0.53631723 145
1.2893993 1.6999526 -0.49367067 128
1.3701421 1.8064045 -0.44239524 81
2.4229174 3.1943905 -0.63948381 128
3.4607458 4.5626707 -0.70581484 14
4.6415296 6.1194239 -0.67301637 19
4.6587582 6.142138 -0.41050553 7
4.6767187 6.1658173 -0.13639177 12
4.798943 6.3269587 2.1232378 13
4.7934813 6.3197579 1.8283328 20
4.7695889 6.2882581 1.5331125 5
4.7514534 6.264348 1.2422681 3
4.7387848 6.2476454 0.95960641 4
4.731935 6.238615 0.68415588 12
4.7010632 6.1979132 0.41228619 16
4.6888237 6.1817765 0.13480775 7
1.2129496 1.5893449 -0.53631723 144
1.2944374 1.6961194 -0.49367067 127
1.3754957 1.8023312 -0.44239524 107
2.4323847 3.1871877 -0.63948381 44
3.4441621 4.5129337 -0.69969863 11
4.6415348 6.0818682 -0.67039764 7
4.6466703 6.0885973 -0.40784681 7
4.658597 6.1042247 -0.13533448 5
4.7942505 6.2819734 2.112906 15
4.8062992 6.297761 1.8260868 28
4.770359 6.250668 1.5273919 5
4.7520418 6.2266669 1.2375863 7
4.7392354 6.2098861 0.95596236 5
4.7262497 6.1928706 0.68067414 14
4.6830821 6.1363077 0.4091107 11
4.6828809 6.1360445 0.13411286 17
1.21766 1.5857389 -0.53631723 147
1.2935306 1.684544 -0.49141645 131
1.4047478 1.8293805 -0.45005575 81
2.4598737 3.2034538 -0.64420903 170
3.4333584 4.4712071 -0.69480562 12
4.6474257 6.0522676 -0.66865182 25
4.640388 6.0431027 -0.40571985 8
4.6584196 6.0665851 -0.13480583 7
4.8011012 6.2523966 2.1077399 26
4.8012247 6.2525578 1.8171023 31
4.7709479 6.213129 1.5216714 5
4.7464328 6.1812029 1.2313436 5
4.7334585 6.1643066 0.95110357 7
4.7142668 6.1393137 0.67632204 19
4.6830225 6.0986247 0.40752295 11
4.6767087 6.0904021 0.13341799 11
1.2229117 1.5816923 -0.53631723 147
1.3050689 1.6879528 -0.49367067 115
1.3987998 1.8091828 -0.44622549 100
2.464443 3.1874666 -0.64263397 145
3.4481666 4.4597974 -0.69480562 16
4.6370034 5.9974179 -0.66428727 19
4.6420784 6.0039816 -0.40412462 7
4.6540489 6.019464 -0.13410096 8
4.7863541 6.1905847 2.0922418 12
4.7861705 6.1903477 1.8036256 33
4.7675076 6.1662097 1.5140439 6
4.7487793 6.1419864 1.2266617 6
4.7356596 6.1250181 0.94745952 9
4.7163196 6.1000037 0.67371076 18
4.6848965 6.0593615 0.4059352 10
4.6724162 6.04322 0.13272311 10
1.2278748 1.5778426 -0.53631723 136
1.3043818 1.6761557 -0.49141645 118
1.4165322 1.820271 -0.45005575 104
0.1 0.1 0.1 -1
3.523114 4.5272689 -0.7070381 10
4.6374679 5.9592352 -0.66166854 17
4.6486516 5.9736066 -0.40306112 12
4.6483746 5.9732504 -0.13339609 8
4.7939124 6.1602693 2.0870757 14
4.7816563 6.1445198 1.7946413 11
4.7687697 6.1279602 1.5083234 8
4.7498527 6.103652 1.2219799 9
4.7365909 6.0866098 0.94381547 10
4.7048693 6.0458469 0.66935861 5
4.6793776 6.0130901 0.40381819 10
4.6729569 6.0048394 0.13220194 11
1.2387813 1.5815811 -0.53890812 106
1.3216562 1.6873895 -0.49592486 115
0.1 0.1 0.1 -1
2.4600644 3.1408219 -0.63633364 1
3.5556791 4.539619 -0.71070784 10
4.6315956 5.9132667 -0.65817684 9
4.6366081 5.9196658 -0.4004024 10
4.6486211 5.9350038 -0.13286744 13
4.7894139 6.1147571 2.0767436 11
4.7829103 6.1064534 1.7879028 13
4.7516789 6.0665798 1.4968822 12
4.7385511 6.049819 1.2141767 8
4.7312064 6.0404425 0.93895668 9
4.6992679 5.9996657 0.66587692 5
4.6859303 5.9826369 0.4027597 12
4.6733027 5.9665151 0.13168077 12
1.2437439 1.5776815 -0.53890812 52
1.3329824 1.6908801 -0.49817908 84
2.1996372 2.7902265 -0.69327736 1
0.1 0.1 0.1 -1
3.5699232 4.5284262 -0.71070784 10
4.6316481 5.8752174 -0.65555811 13
4.642818 5.8893862 -0.39933893 10
4.6548638 5.9046664 -0.13251501 8
4.784677 6.0693336 2.0664117 12
4.7779393 6.0607872 1.7789184 11
4.7464046 6.0207858 1.4892548 10
4.7330732 6.0038748 1.207934 13
4.7255793 5.994369 0.93409789 8
4.6995912 5.9614029 0.66326559 8
4.6799731 5.9365172 0.40064269 13
4.6734538 5.9282479 0.1311596 11
0.1 0.1 0.1 -1
1.3261766 1.67142 -0.49367067 48
2.2449951 2.8294344 -0.70476818 10
2.4613361 3.1020954 -0.63160837 34
3.6026387 4.540513 -0.71437758 11
4.6253152 5.8294225 -0.65206647 6
4.6302629 5.8356586 -0.39668021 10
4.654747 5.8665161 -0.13198635 8
4.7857065 6.0315685 2.0586627 15
4.7787862 6.0228467 1.7721801 12
4.7469916 5.9827752 1.4835342 7
4.7396326 5.9735003 1.2048128 13
4.7258792 5.9561667 0.93045384 8
4.6935282 5.9153934 0.6597839 9
4.6737723 5.8904948 0.39852569 15
4.6734109 5.8900394 0.13063845 13
1.2536321 1.5698358 -0.53890812 128
1.331421 1.6672454 -0.49367067 126
2.2844963 2.8607149 -0.71434385 15
2.4464204 3.0634811 -0.62530804 17
3.6168854 4.5291724 -0.71437758 17
4.6311731 5.7992945 -0.65032065 16
4.6361108 5.8054771 -0.39561671 12
4.6544366 5.8284254 -0.1314577 11
4.7805181 5.9863086 2.0483305 15
4.7794418 5.9849606 1.7654418 16
4.7535124 5.9524908 1.4797205 17
4.7275572 5.9199891 1.1970096 7
4.7197919 5.9102654 0.92559505 8
4.6934395 5.8772655 0.65717262 8
4.6735606 5.8523731 0.39693794 12
4.6669354 5.8440766 0.12994356 13
1.2522349 1.5585799 -0.53631723 134
1.3485662 1.6784775 -0.49817908 120
2.2683847 2.823319 -0.70668328 19
2.4554992 3.0562091 -0.62530804 6
4.6124802 5.740871 -0.90765101 26
4.6234021 5.7544646 -0.64682901 18
4.634552 5.7683425 -0.39402148 12
4.6654468 5.8067951 -0.1312815 13
4.7740555 5.9419742 2.0379984 21
4.7727652 5.9403677 1.7564573 16
4.7342625 5.8924456 1.4682794 12
4.7265415 5.8828359 1.1923277 16
4.7124395 5.865284 0.92073631 9
4.6921382 5.8400164 0.65456134 8
4.6783953 5.8229113 0.39587945 15
4.6654673 5.8068204 0.1294224 15
1.2689973 1.5698804 -0.54149908 142
1.3412912 1.6593153 -0.49367067 126
2.2459013 2.7784111 -0.69710767 10
2.4645562 3.0489099 -0.62530804 32
4.6045365 5.6962857 -0.902758 15
4.6216683 5.7174797 -0.64421022 26
4.6328139 5.7312684 -0.39242625 12
4.6575136 5.7618241 -0.13057663 19
4.7734456 5.9052439 2.0302494 15
4.7719922 5.9034457 1.749719 18
4.7393827 5.8631043 1.4644656 14
4.725347 5.8457413 1.1876458 17
4.711102 5.8281183 0.9170922 9
4.6906576 5.8028264 0.65195006 10
4.6705413 5.7779403 0.39376244 16
4.6575341 5.7618494 0.12872751 16
1.2741963 1.5656636 -0.54149908 138
1.352936 1.6624148 -0.49592486 126
2.2551024 2.7709482 -0.69710767 12
2.4310195 2.9871058 -0.61428243 9
4.6046066 5.6578918 -0.89908826 14
4.6154504 5.6712165 -0.64071858 13
4.6265812 5.6848931 -0.39029929 10
4.6576614 5.723083 -0.13004798 14
4.7747078 5.8669033 2.0225003 20
4.7792406 5.8724732 1.7452267 15
4.7402101 5.8245144 1.4587451 12
4.7197671 5.7993951 1.1814033 13
4.7116065 5.7893677 0.91344815 9
4.6847215 5.7563334 0.64846838 8
4.6770692 5.7469301 0.39270392 15
4.6639929 5.7308626 0.12838008 15
1.2791086 1.5616529 -0.54149908 140
1.3581519 1.6581562 -0.49592486 126
2.2637966 2.76385 -0.69710767 12
2.3402731 2.8572197 -0.58908111 8
4.6097808 5.6280417 -0.89664173 26
4.6206198 5.6412754 -0.63897276 12
4.631763 5.65488 -0.38923579 7
4.6439404 5.6697474 -0.12916689 20
4.7808728 5.8369269 2.0173345 24
4.7606187 5.8121986 1.7317501 15
4.7398243 5.7868114 1.4530245 10
4.7317042 5.7768974 1.1798426 12
4.7109022 5.7515006 0.90980411 10
4.683845 5.7184668 0.6458571 8
4.6634626 5.6935816 0.39005768 15
4.6629672 5.692977 0.12785891 14
1.2778648 1.550174 -0.53890812 150
1.3633544 1.6538812 -0.49592486 127
2.2911973 2.7794447 -0.70285302 20
2.3555193 2.8574734 -0.59065622 9
4.6021867 5.5828991 -0.89174873 20
4.6193099 5.6036711 -0.63635403 26
4.6368017 5.6248903 -0.38817233 9
4.6362901 5.62427 -0.12846202 6
4.7623167 5.7771525 2.0018363 37
4.7726564 5.7896948 1.729504 28
4.7392488 5.7491684 1.447304 10
4.7184153 5.7238955 1.1720394 12
4.7036929 5.7060361 0.90494531 10
4.6827774 5.6806631 0.64324576 10
4.6686225 5.6634922 0.38899916 14
4.6617498 5.6551547 0.12733774 14
1.2888955 1.5535853 -0.54149908 156
1.3809849 1.6645862 -0.50043327 120
1.4288318 1.7222592 -0.43664983 31
2.3770952 2.8652596 -0.59380639 22
4.6006923 5.5454979 -0.88807899 17
4.6114492 5.5584641 -0.63286239 23
4.6353221 5.5872397 -0.3865771 8
4.6347847 5.5865917 -0.12793337 8
4.768106 5.7472925 1.9966702 27
74.662155 89.994896 26.95331 -1
4.7322154 5.704031 1.4396765 10
4.7111473 5.6786361 1.1657969 11
4.7025828 5.668313 0.90130126 10
4.6878791 5.6505895 0.64150494 10
4.6736398 5.6334262 0.38794068 15
4.6539569 5.6097012 0.12664285 12
1.3061504 1.5643564 -0.54668087 156
1.3737191 1.6452824 -0.49592486 126
1.4216543 1.7026937 -0.43281958 13
0.1 0.1 0.1 -1
4.6053691 5.51578 -0.88563251 20
4.6161194 5.5286555 -0.63111657 15
4.6272516 5.5419888 -0.38445011 17
4.6394958 5.5566535 -0.12758094 9
4.7675633 5.7100377 1.9889212 26
4.7589765 5.6997533 1.7115352 34
4.7312369 5.6665301 1.433956 16
4.7163029 5.6486435 1.1626756 7
4.7076435 5.6382728 0.89887184 10
4.6736836 5.5975995 0.63715279 10
4.6593137 5.580389 0.38529441 13
4.6651492 5.5873775 0.12646914 19
1.2986314 1.5454563 -0.54149908 154
1.3914164 1.6558764 -0.50043327 128
1.4333106 1.7057333 -0.4347347 25
0.1 0.1 0.1 -1
4.6099048 5.4860878 -0.88318598 18
4.6206479 5.4988732 -0.62937069 12
4.6253672 5.5044889 -0.38285488 16
4.6376333 5.5190864 -0.12705229 15
4.7606187 5.6654472 1.9785892 33
4.7517838 5.6549335 1.7025508 33
4.7237549 5.6215768 1.4263285 15
4.7213163 5.6186748 1.1595542 12
4.699791 5.5930586 0.89401311 11
4.6784282 5.5676351 0.63541192 9
4.6639738 5.5504336 0.38423592 11
4.6633825 5.5497298 0.12594797 25
1.3097169 1.5487438 -0.54408997 146
1.4091938 1.6663754 -0.5049417 126
1.4259869 1.6862333 -0.43090445 15
1.4474975 1.7116697 -0.35754389 14
4.5950732 5.4336867 -0.87706977 11
4.6314678 5.4767232 -0.62849778 32
4.6168447 5.4594312 -0.38072792 14
4.6420364 5.4892206 -0.12669985 22
4.7596793 5.6283336 1.9708401 51
4.7569413 5.6250958 1.6980585 29
4.7287149 5.5917177 1.4225148 14
4.7134318 5.5736461 1.1533117 13
4.6981106 5.5555286 0.890369 10
4.6765981 5.5300899 0.63280064 7
4.6684914 5.520504 0.38317743 14
4.6614256 5.5121484 0.1254268 15
1.314576 1.5446216 -0.54408997 136
1.4081075 1.6545206 -0.50268751 118
1.4312773 1.6817452 -0.43090445 17
1.4528677 1.7071139 -0.35754389 6
4.6121211 5.4192238 -0.87706977 9
4.6163683 5.4242144 -0.62413323 12
4.6145573 5.4220862 -0.37913269 14
4.6268578 5.4365392 -0.12581877 10
4.7460318 5.5765681 1.957925 43
4.7493272 5.5804405 1.689074 36
4.720809 5.5469322 1.4148874 14
4.7117133 5.5362449 1.1486298 15
4.7026744 5.5256238 0.88793963 9
4.681035 5.5001974 0.63105983 18
4.6663952 5.482996 0.38158968 16
4.6527987 5.46702 0.12473192 15
1.3257051 1.5478197 -0.54668087 129
1.4069607 1.6426893 -0.50043327 107
1.4429382 1.6846948 -0.43281958 13
1.432528 1.6725404 -0.35124356 22
4.6162109 5.3896317 -0.87462324 18
4.6139455 5.3869867 -0.6215145 12
4.6185765 5.3923941 -0.37806919 14
4.6309061 5.4067893 -0.12546633 12
4.7509589 5.5469561 1.952759 45
4.7604966 5.5580916 1.686828 40
4.7254405 5.5171623 1.4110737 15
4.7162323 5.5064111 1.1455085 14
4.7006397 5.4882064 0.88429558 9
4.6788502 5.4627662 0.62844855 13
4.6511178 5.4303875 0.37894341 19
4.6439342 5.4220004 0.12403703 21
1.3305612 1.5436473 -0.54668087 126
1.4248362 1.6530203 -0.5049417 127
1.4418157 1.672719 -0.43090445 11
1.4377754 1.6680317 -0.35124356 10
4.5942407 5.3299975 -0.86728376 32
4.6048303 5.3422828 -0.61802286 17
4.6224551 5.36273 -0.37700573 12
4.6348133 5.3770676 -0.1251139 14
4.7557468 5.5173683 1.947593 46
4.7524858 5.5135851 1.6778436 36
4.7171135 5.472548 1.4034463 16
4.7141609 5.4691224 1.1408266 30
4.691936 5.4433379 0.87943679 9
4.6764765 5.4254026 0.62583727 11
4.6616349 5.4081845 0.37841415 17
4.6478891 5.3922377 0.12368959 17
1.335404 1.5394596 -0.54668087 126
1.4300222 1.6485358 -0.5049417 127
1.4534949 1.6755953 -0.43281958 16
1.4494795 1.6709663 -0.35281864 16
4.5914521 5.293046 -0.86361402 33
4.6085353 5.3127398 -0.61627704 29
4.6196494 5.325552 -0.3754105 10
4.6385794 5.3473744 -0.12476147 15
4.754066 5.4805079 1.9398439 43
4.7442427 5.4691834 1.6688591 80
4.72785 5.4502864 1.4015394 17
4.70543 5.4244399 1.1345841 11
4.6960049 5.4135752 0.87700742 9
4.6739144 5.3881087 0.62322599 13
4.6589718 5.370883 0.37682641 16
4.6451516 5.3549509 0.12316843 18
1.3402338 1.5352567 -0.54668087 126
1.4351941 1.6440351 -0.5049417 152
1.4587518 1.6710207 -0.43281958 18
1.4482275 1.658965 -0.35124356 13
4.5884771 5.256165 -0.85994428 25
4.6055493 5.2757215 -0.61365825 34
4.6232233 5.2959676 -0.374347 12
4.6356297 5.3101792 -0.12423282 12
4.7458467 5.4364347 1.9295119 35
4.7421761 5.4322295 1.6621208 54
4.7191267 5.4058261 1.393912 15
4.7159524 5.4021897 1.1330234 17
4.6934061 5.3763628 0.87336332 9
4.671164 5.3508844 0.62061465 12
4.6495533 5.326129 0.3747094 18
4.6488008 5.3252668 0.12282099 20
1.3514251 1.5382948 -0.54927176 127
1.4596424 1.6614761 -0.51170433 126
1.4639943 1.6664298 -0.43281958 32
1.4599499 1.661826 -0.35281864 17
4.5918665 5.2268119 -0.85749775 18
4.6023765 5.2387748 -0.61103952 25
4.6200662 5.2589111 -0.37275177 16
4.6324921 5.2730556 -0.12370417 12
4.7501507 5.4069829 1.9243459 27
4.7334933 5.3880219 1.6531364 34
4.7166495 5.3688493 1.3881915 17
4.7003045 5.3502445 1.1252203 18
4.6906199 5.3392205 0.86971927 11
4.6748013 5.3212147 0.61887383 11
4.6596723 5.3039932 0.37418017 18
4.6523094 5.2956128 0.12247355 15
1.356251 1.5340416 -0.54927176 126
1.4648548 1.6568823 -0.51170433 129
2.5223815 2.85304 -0.74307078 16
1.4651634 1.6572312 -0.35281864 41
4.5951166 5.1974888 -0.85505128 15
4.6056151 5.2093639 -0.6092937 18
4.6167221 5.2219267 -0.37115654 16
4.6225448 5.2285132 -0.1229993 16
4.7479172 5.3703203 1.9165968 32
4.7439423 5.3658247 1.6508902 22
4.7139869 5.3319421 1.3824708 16
4.7040048 5.3206515 1.1220989 20
4.694221 5.3095851 0.86728984 11
4.6651015 5.2766485 0.61539209 10
4.6564689 5.2668843 0.37259242 21
4.6424327 5.251008 0.12177866 15
1.3482234 1.5153414 -0.54408997 133
1.4765289 1.6595509 -0.51395851 137
2.5443804 2.859767 -0.74690104 22
1.4834907 1.6673757 -0.3559688 17
4.5916305 5.1607828 -0.85138154 18
4.6020927 5.1725416 -0.60667497 17
4.6198292 5.1924763 -0.37009305 16
4.6256557 5.1990256 -0.12264687 17
4.7455006 5.3337255 1.9088477 42
4.7413445 5.3290539 1.6441519 32
4.7111387 5.2951045 1.3767502 14
4.7075658 5.2910881 1.1189777 14
4.6910849 5.2725649 0.86364579 10
4.6684117 5.2470813 0.61365128 11
4.653079 5.2298479 0.37100467 21
4.6389685 5.2139878 0.12125749 18
1.3658628 1.5254898 -0.54927176 121
1.488234 1.6621624 -0.5162127 131
3.1622283 3.5317945 -0.92500824 30
3.7679148 4.2082672 -0.90094757 1
4.5813394 5.1167555 -0.84648854 19
4.5917397 5.1283717 -0.60318333 17
4.6094747 5.1481791 -0.36796609 18
4.6286273 5.16957 -0.12229443 16
4.7429008 5.2971988 1.9010987 43
4.7385626 5.2923532 1.6374135 43
4.7146544 5.2656507 1.3729366 13
4.6978097 5.2468376 1.1127352 15
4.6877627 5.2356162 0.86000174 9
4.6649375 5.2101235 0.61104 9
4.6495028 5.1928849 0.36941689 20
4.6419864 5.1844907 0.12091005 19
1.3768471 1.528607 -0.55186266 98
1.4931593 1.6577394 -0.5162127 107
3.1595559 3.5078108 -0.92117798 31
3.8200388 4.2410941 -0.91039807 36
4.5898585 5.0957656 -0.84526527 16
4.6002688 5.1073232 -0.60231042 18
4.6180458 5.1270599 -0.36743435 18
4.6305623 5.1409554 -0.121942 18
4.7392006 5.2615685 1.8933496 42
4.7346797 5.2565489 1.6306752 46
4.7105474 5.2297573 1.367216 14
4.7001352 5.2181973 1.1096139 13
4.68999 5.206934 0.85757232 8
4.6670413 5.1814556 0.60929912 9
4.6448402 5.1568074 0.36782914 19
4.6372738 5.148407 0.12038889 19
1.3684058 1.5102005 -0.54668087 76
1.4980713 1.6533018 -0.5162127 79
3.071095 3.3893225 -0.89245099 36
3.8326056 4.2297411 -0.91039807 34
4.5849652 5.0600605 -0.84159553 14
4.5886464 5.0641232 -0.59881872 16
4.5997124 5.0763359 -0.36477563 18
4.6256547 5.1049662 -0.12141335 19
4.7288442 5.2188482 1.8830175 34
4.7306261 5.2208147 1.6239369 38
4.7128611 5.2012091 1.3634022 15
4.6890678 5.1749506 1.1033713 13
4.6987538 5.1856399 0.85635763 10
4.6623268 5.1454387 0.60668784 7
4.6467099 5.1282029 0.36677065 16
4.639102 5.1198068 0.12004144 22
1.3734064 1.5056543 -0.54668087 134
1.4969798 1.641127 -0.51395851 50
0.1 0.1 0.1 -1
3.6868899 4.0419078 -0.87259609 27
4.5883427 5.0301633 -0.839149 15
4.5919876 5.0341587 -0.5970729 11
4.6097913 5.0536771 -0.36424389 18
4.6223435 5.0674381 -0.1208847 18
4.739614 5.1960006 1.8804346 28
4.7347789 5.1907001 1.6194447 30
4.7036209 5.1565418 1.3557749 17
4.6928897 5.1447773 1.10025 13
4.6891675 5.1406965 0.8514989 9
4.6592236 5.1078691 0.60407656 9
4.6502304 5.0980105 0.36571214 15
4.6291018 5.0748472 0.11934656 19
1.3911926 1.5155629 -0.55186266 129
1.5021282 1.6364161 -0.51395851 148
1.5132732 1.6485573 -0.43664983 14
3.6928918 4.0230303 -0.87102103 18
4.5906997 5.0011005 -0.83670253 13
4.5943069 5.0050306 -0.59532708 16
4.6053867 5.0171008 -0.36264867 14
4.6179566 5.0307941 -0.12035605 17
4.7428489 5.1668515 1.8752686 28
4.7378836 5.1614423 1.6149524 28
4.6998825 5.1200447 1.3500543 17
4.6889911 5.1081791 1.0955681 13
4.6918697 5.1113148 0.84906948 8
4.6685104 5.0858679 0.60320616 9
4.6459651 5.0613065 0.36412439 16
4.6314993 5.045548 0.11899912 19
1.395947 1.5111848 -0.55186266 136
1.5072618 1.6316888 -0.51395851 124
1.5251046 1.6510047 -0.43856499 15
3.7323153 4.0404243 -0.87732136 11
4.586185 4.9647822 -0.83303279 11
4.5897293 4.9686198 -0.59270835 12
4.607574 4.9879375 -0.36158517 16
4.6201696 5.0015731 -0.12000362 12
4.7393918 5.1306372 1.8675195 43
4.7342391 5.1250587 1.6082141 30
4.695962 5.0836215 1.3443338 16
4.6983132 5.0861673 1.0940075 12
4.6876984 5.074676 0.84542543 7
4.6574264 5.0419054 0.59972441 7
4.6415148 5.0246801 0.36253664 14
4.6337585 5.0162835 0.11865167 16
1.4072636 1.5138661 -0.55445355 133
1.5123805 1.6269456 -0.51395851 127
1.5302839 1.6462053 -0.43856499 17
3.8794603 4.1733356 -0.90882301 23
4.5882449 4.9358115 -0.83058625 7
4.5985336 4.9468799 -0.59183544 7
4.6096234 4.9588099 -0.3605217 7
4.6154375 4.965064 -0.11947496 13
4.729177 5.0874195 1.8571875 52
4.730413 5.0887494 1.6014758 61
4.7052255 5.0616541 1.3424269 15
4.6940937 5.0496788 1.0893255 18
4.6901016 5.0453844 0.84299606 7
4.659678 5.0126557 0.59798354 10
4.6504784 5.0027595 0.36200741 14
4.63588 4.9870553 0.11830423 11
1.4054145 1.5023841 -0.55186266 136
1.5174842 1.6221863 -0.51395851 130
1.528743 1.634222 -0.43664983 23
0.1 0.1 0.1 -1
4.6037283 4.9213729 -0.83058625 14
4.6072464 4.9251337 -0.59096253 7
4.6251793 4.944304 -0.3605217 12
4.617352 4.9359365 -0.11912253 3
4.7319369 5.0584273 1.8520215 52
4.7264056 5.0525146 1.5947375 31
4.6942797 5.0181718 1.3347994 16
4.7031865 5.0276937 1.087765 15
4.6923676 5.0161276 0.84056664 9
4.6549859 4.9761672 0.59537226 6
4.6388845 4.9589543 0.3598904 13
4.6310329 4.9505615 0.11778307 14
1.4167477 1.5049942 -0.55445355 138
1.5225729 1.617411 -0.51395851 120
1.5405971 1.6365578 -0.43856499 65
4.5689492 4.8535399 -1.0631812 19
4.5851521 4.8707523 -0.82447004 14
4.602212 4.888875 -0.5883438 14
4.6270003 4.9152069 -0.35945821 8
4.6259828 4.9141264 -0.11894631 3
4.7213182 5.0153999 1.8416893 53
4.7355762 5.0305457 1.5924914 87
4.7032928 4.9962521 1.3328925 14
4.6986475 4.9913168 1.083083 17
4.6876922 4.9796791 0.83692259 7
4.6569395 4.947011 0.59363145 7
4.6407509 4.9298143 0.35883188 12
4.6328564 4.9214277 0.11743563 11
1.427848 1.5077969 -0.55704451 157
1.5273652 1.6128863 -0.51395851 128
3.0976408 3.2710857 -0.87904507 23
4.5629592 4.8184514 -1.0584559 52
4.5791106 4.8355074 -0.8208003 17
4.596148 4.8534985 -0.58572501 16
4.620965 4.879705 -0.35786298 10
4.6267929 4.8858595 -0.11859388 5
4.7228932 4.9873405 1.8365233 49
4.72368 4.9881711 1.5835069 42
4.6910973 4.953764 1.3252652 18
4.6930609 4.9558377 1.0784011 15
4.6751461 4.9369197 0.83206379 7
4.657897 4.918705 0.59189057 7
4.6553578 4.9160233 0.35883188 11
4.633688 4.8931403 0.11708818 12
1.4323153 1.5035537 -0.55704451 153
1.5388639 1.6154016 -0.5162127 171
3.120872 3.2760935 -0.88287532 32
4.5568018 4.7834411 -1.0537306 14
4.5797467 4.8075271 -0.81835377 15
4.596786 4.8254147 -0.58397919 19
4.6147599 4.8442817 -0.35626775 16
4.6205802 4.8503919 -0.11806523 3
4.71768 4.9523211 1.8287743 44
4.7182956 4.9529672 1.5767686 57
4.6990037 4.9327159 1.3233583 14
4.694119 4.927588 1.0752798 20
4.6829271 4.9158397 0.83084911 7
4.6518569 4.883224 0.58927929 6
4.6561475 4.8877282 0.35777339 11
4.6274967 4.8576522 0.11656702 6
1.4372935 1.4987957 -0.55704451 155
1.5711855 1.638417 -0.52522951 139
3.1249256 3.2586422 -0.88096023 26
4.558969 4.7540488 -1.0505805 28
4.5750556 4.7708235 -0.81468403 15
4.5851827 4.781384 -0.58048755 14
4.6031518 4.8001227 -0.35414079 9
4.6297188 4.827826 -0.11788902 13
4.7207031 4.9227037 1.8236083 40
4.7212052 4.9232273 1.5722764 48
4.694952 4.8958507 1.3176377 12
4.6830869 4.8834777 1.0690373 22
4.6717224 4.8716269 0.82599038 9
4.6473393 4.8462005 0.58666801 6
4.6585069 4.8578463 0.3567149 10
4.64358 4.8422804 0.11656702 12
1.441995 1.4942731 -0.55704451 156
1.5830902 1.6404835 -0.5274837 136
3.1487784 3.2629342 -0.88479048 39
4.5601668 4.725491 -1.0474303 20
4.5762367 4.7421436 -0.81223756 13
4.5932636 4.7597876 -0.57961464 15
4.6112752 4.7784519 -0.35360903 12
4.6309772 4.7988682 -0.11753658 15
4.7227283 4.8939457 1.8184422 42
4.7163486 4.8873353 1.565538 36
4.6966763 4.8669496 1.3138241 11
4.6915469 4.8616338 1.0674766 12
4.6801114 4.8497839 0.82477564 8
4.6556234 4.8244081 0.58579761 7
4.6529422 4.8216295 0.35512713 10
4.6379404 4.8060842 0.11604585 9
1.4466823 1.4897355 -0.55704451 151
1.6085981 1.6564699 -0.53424633 105
3.1590137 3.253026 -0.88479048 40
4.5681105 4.7040572 -1.0458553 75
4.5772834 4.7135034 -0.80979103 9
4.5873742 4.7238941 -0.57699591 11
4.5984368 4.7352862 -0.35148206 11
4.6181679 4.7556047 -0.11683171 16
4.7178888 4.8582931 1.8106931 31
4.7181025 4.8585129 1.5610459 29
4.6982656 4.8380857 1.3100103 10
4.6930342 4.8326988 1.0643554 16
4.6745791 4.8136945 0.82113159 7
4.6429958 4.7811713 0.58231586 6
4.6541529 4.7926607 0.35406864 11
4.6390848 4.777144 0.11569841 10
1.4648563 1.4989989 -0.5622263 158
1.6206034 1.6583762 -0.53650057 70
3.1692178 3.2430856 -0.88479048 40
4.5621605 4.6684947 -1.0411299 37
4.5781956 4.6849036 -0.80734456 18
4.5813046 4.6880851 -0.57437718 8
4.5993323 4.706533 -0.35041857 9
4.6191092 4.7267709 -0.11647928 15
4.7196245 4.8296289 1.8055272 28
4.7333426 4.8436666 1.5610459 35
4.6997199 4.8092604 1.3061966 9
4.673676 4.7826095 1.0565522 10
4.6619291 4.7705889 0.8162728 7
4.6510305 4.7594361 0.58144546 12
4.6482487 4.7565894 0.35248089 12
4.6400938 4.7482443 0.11535097 12
1.4627861 1.4875029 -0.5596354 141
1.5848187 1.6115975 -0.52297533 159
3.1793907 3.2331133 -0.88479048 41
4.5560322 4.6330161 -1.0364047 42
4.5720143 4.6492682 -0.80367482 20
4.589025 4.6665664 -0.57350427 12
4.6000919 4.6778202 -0.3493551 11
4.6129045 4.6908493 -0.11595063 10
4.7144532 4.7941136 1.7977781 39
4.7212062 4.800981 1.5520614 40
4.6941566 4.7734742 1.3004761 10
4.6748266 4.7538176 1.0534309 9
4.6699338 4.7488422 0.81505811 8
4.6519899 4.7305951 0.57970458 7
4.6491652 4.7277226 0.3514224 11
4.6339564 4.7122569 0.1148298 12
1.4742458 1.4897654 -0.5622263 129
1.5898738 1.6066108 -0.52297533 58
3.2033396 3.2370617 -0.88862073 34
4.5636187 4.6116605 -1.0348296 42
4.5796165 4.6278272 -0.80245155 18
4.5896487 4.6379647 -0.57175839 24
4.5936933 4.6420517 -0.34775987 10
4.6065197 4.6550136 -0.11542198 12
4.7159004 4.7655458 1.7926121 44
4.7088485 4.7584195 1.543077 65
4.6953201 4.7447486 1.2966623 12
4.6688948 4.7180448 1.048749 8
4.6638837 4.7129817 0.81141406 9
4.6458068 4.6947141 0.5770933 8
4.6499467 4.6988978 0.35036388 15
4.6346717 4.6834617 0.11448236 17
1.4993646 1.5056583 -0.56999898 138
0.1 0.1 0.1 -1
3.2134933 3.2269821 -0.88862073 31
4.5641475 4.5833058 -1.0316795 41
4.5661197 4.5852866 -0.79755855 20
4.5971675 4.6164641 -0.57088548 30
4.6012077 4.6205215 -0.34722811 7
4.6140661 4.6334343 -0.11524576 11
4.7240319 4.7438612 1.790029 43
4.7168984 4.7366982 1.5408309 44
4.6824956 4.7021508 1.2890348 13
4.669754 4.6893559 1.0456277 10
4.664659 4.6842394 0.8089847 12
4.6464739 4.665978 0.57535243 8
4.6365004 4.6559625 0.34824687 13
4.6281967 4.647624 0.1139612 14
1.4972506 1.4941181 -0.56740808 153
1.6137296 1.6103534 -0.5274837 139
3.2375102 3.2307367 -0.89245099 40
4.5645437 4.5549936 -1.0285293 32
4.5664515 4.5568976 -0.79511207 18
4.5834417 4.5738525 -0.56739384 23
4.6086321 4.59899 -0.34669638 7
4.6073675 4.5977283 -0.11471711 6
4.7115588 4.7017012 1.7796971 43
4.7041655 4.6943235 1.5318464 51
4.6833477 4.6735492 1.2852212 16
4.6774716 4.667685 1.044067 10
4.6652999 4.655539 0.80655527 10
4.6470065 4.6372838 0.57361162 10
4.6369677 4.6272659 0.34718838 14
4.6286201 4.6189361 0.11361375 17
1.4879632 1.4760648 -0.5622263 149
1.6254171 1.6124196 -0.52973795 132
3.2540498 3.2280288 -0.89436615 29
4.5640168 4.5275211 -1.0253792 39
4.5658598 4.5293493 -0.79266554 17
4.5757756 4.5391855 -0.56477511 21
4.6009893 4.564198 -0.34510115 7
4.5996943 4.5629129 -0.11418846 6
4.711771 4.6740937 1.774531 45
4.704237 4.6666198 1.5273542 35
4.6832557 4.6458058 1.2814075 13
4.6702628 4.6329174 1.0393851 13
4.664999 4.6276956 0.80412591 11
4.6395278 4.602428 0.57100034 9
4.6364975 4.599422 0.34612986 15
4.6210093 4.5840573 0.11309259 14
1.4992133 1.4784251 -0.56481719 145
1.6579421 1.634953 -0.53875476 115
3.263613 3.2183597 -0.89436615 31
4.5563359 4.4931579 -1.020654 16
4.565145 4.5018444 -0.79021907 18
4.5821304 4.5185943 -0.5639022 22
4.6074014 4.5435147 -0.34456941 12
4.6060934 4.5422249 -0.11401225 5
4.7049828 4.6397433 1.7667819 36
4.704186 4.6389575 1.522862 48
4.6760502 4.6112118 1.2756869 14
4.6699224 4.6051688 1.0362638 13
4.6575065 4.5929251 0.80048186 13
4.6389766 4.5746522 0.56925946 9
4.6287932 4.56461 0.34454212 16
4.6203518 4.5562859 0.11274515 14
1.5179069 1.4869633 -0.56999898 152
1.6494354 1.6158105 -0.53424633 90
3.2742677 3.2075195 -0.89436615 25
4.5712109 4.4780235 -1.020654 47
4.5658689 4.4727907 -0.78777254 17
4.5757408 4.482461 -0.56128347 21
4.5939093 4.5002589 -0.34244242 10
4.6068459 4.5129318 -0.11365981 12
4.7065406 4.6105947 1.7616159 27
4.7056212 4.609694 1.5183698 34
4.6772909 4.5819411 1.2718732 14
4.664 4.5689211 1.031582 13
4.6585302 4.5635629 0.79805243 11
4.6398883 4.545301 0.56751859 8
4.6296377 4.5352592 0.34348363 17
4.6211505 4.5269451 0.11239771 14
1.5225708 1.4821873 -0.56999898 146
1.6405414 1.597029 -0.52973795 137
3.2913611 3.2040634 -0.89628124 30
4.5640283 4.4429755 -1.0159286 47
4.5727863 4.4515014 -0.78654927 10
4.5755239 4.4541664 -0.55953765 16
4.5937138 4.4718738 -0.34137896 12
4.5995078 4.4775138 -0.11313117 8
4.7140799 4.5890474 1.7590328 25
4.6991329 4.5744967 1.5116315 18
4.6775947 4.5535297 1.2680595 14
4.6641755 4.5404663 1.0284606 11
4.6586194 4.535058 0.79562306 9
4.6470065 4.5237527 0.56664819 25
4.6295519 4.5067611 0.34242514 21
4.6138563 4.4914823 0.11187654 17
1.5202779 1.4706813 -0.56740808 156
1.6455505 1.5918672 -0.52973795 157
3.3084648 3.2005317 -0.8981964 30
4.5495734 4.4011512 -1.0096283 33
4.5796151 4.430213 -0.78532606 7
4.5751748 4.4259171 -0.55779177 5
4.5933857 4.4435339 -0.34031546 12
4.6063652 4.4560905 -0.11295494 11
4.707643 4.5540643 1.7512839 23
4.7064772 4.5529361 1.5093853 26
4.6848216 4.5319872 1.2661526 16
4.6713176 4.5189233 1.0269001 22
4.6585755 4.506597 0.7931937 13
4.6397152 4.4883523 0.56403691 9
4.6365099 4.4852514 0.34189588 18
4.6207581 4.4700131 0.11170282 19
1.5040016 1.4458171 -0.5596354 173
1.6786377 1.6136972 -0.53875476 140
3.3397305 3.2105279 -0.90394181 18
4.5420203 4.3663054 -1.0049031 35
4.5863557 4.4089255 -0.7841028 11
4.5746932 4.3977146 -0.55604595 7
4.5857258 4.4083204 -0.33872023 9
4.6059256 4.4277387 -0.11260251 14
4.7079978 4.5258622 1.7461178 33
4.6996827 4.5178685 1.502647 34
4.6707287 4.4900346 1.2585251 18
4.6641288 4.4836898 1.0222181 14
4.6583986 4.4781818 0.79076427 9
4.6466112 4.4668503 0.5631665 13
4.6289806 4.4499021 0.34030813 18
4.6131539 4.4346871 0.11118165 17
1.5294883 1.4611001 -0.56740808 162
3.0785627 2.9409106 -0.98508716 82
3.3568971 3.2067997 -0.90585691 19
4.5557151 4.3520145 -1.0049031 16
4.5786543 4.3739285 -0.78043306 17
4.5668769 4.3626776 -0.55342722 6
4.5923319 4.3869944 -0.3381885 10
4.5908942 4.3856211 -0.11189765 10
4.6942511 4.4843564 1.7357857 34
4.6997604 4.4896197 1.4981548 34
4.6777129 4.4685578 1.2566184 15
4.6639071 4.455369 1.0190969 15
4.6580896 4.4498119 0.78833491 12
4.6246037 4.4178233 0.55881435 9
4.6212754 4.4146438 0.33872038 16
4.6053739 4.3994532 0.11066049 18
1.5200611 1.4429885 -0.5622263 154
3.0524573 2.8976865 -0.9738161 1
3.3598366 3.1894805 -0.90394181 21
4.5550404 4.3240833 -1.001753 15
4.5563822 4.325357 -0.77431679 13
4.5805597 4.3483086 -0.55342722 25
4.5916066 4.3587952 -0.337125 11
4.6046491 4.3711767 -0.11189765 15
4.7013097 4.4629359 1.7332028 34
4.6997075 4.4614148 1.4936626 32
4.6703701 4.4335651 1.2508978 13
4.6635532 4.427094 1.0159756 14
4.6576486 4.4214888 0.78590554 10
4.6384602 4.4032731 0.55881435 11
4.6278791 4.393229 0.33819112 18
4.6119208 4.3780794 0.11048677 16
1.5316126 1.4448336 -0.56481719 147
3.0686324 2.894768 -0.97607034 100
3.3627007 3.1721747 -0.90202665 21
4.5470524 4.289423 -0.9970277 13
4.577168 4.317832 -0.77554005 12
4.5941978 4.3338971 -0.55342722 9
4.5907497 4.3306441 -0.33606151 9
4.59654 4.3361063 -0.11136899 10
4.6942253 4.428257 1.7254537 44
4.6853471 4.4198818 1.4846781 37
4.6771345 4.4121346 1.2489909 15
4.6630688 4.3988657 1.0128543 12
4.6570754 4.3932123 0.78347611 10
4.6377773 4.3750072 0.55707347 11
4.6198664 4.3581114 0.33660337 17
4.6111059 4.3498473 0.11013933 16
1.5502373 1.453226 -0.56999898 149
3.0706036 2.8784502 -0.9738161 199
3.3941317 3.1817324 -0.90777206 22
4.5677104 4.2818704 -0.99860275 43
4.5617466 4.2762799 -0.77064705 13
4.5859871 4.2990036 -0.55080849 25
4.5824761 4.2957125 -0.33446628 11
4.5955505 4.3079686 -0.11101656 12
4.6869698 4.3936667 1.7177047 40
4.6992092 4.4051404 1.4846781 25
4.6694875 4.3772783 1.2432704 15
4.6624522 4.3706837 1.009733 10
4.6491294 4.3581944 0.77983207 10
4.6369629 4.3467894 0.5553326 10
4.6189642 4.329917 0.33554485 19
4.6101594 4.3216634 0.10979188 13
1.5759968 1.4680988 -0.57777172 179
2.2241781 2.0719035 -0.70331162 143
3.3969288 3.1643636 -0.90585691 26
4.5522366 4.2405753 -0.99230242 20
4.5678964 4.2551627 -0.76942378 13
4.5703135 4.2574143 -0.54731685 17
4.5886421 4.2744884 -0.33393455 9
4.6017456 4.2866945 -0.11084034 12
4.6936808 4.3723354 1.7151216 41
4.7058949 4.3837137 1.482432 58
4.6688504 4.349205 1.2394567 14
4.6544781 4.3358169 1.0050511 21
4.6410093 4.3232703 0.77618802 11
4.6360173 4.3186202 0.55359179 12
4.6179304 4.3017716 0.33448637 19
4.6163979 4.3003435 0.10961816 24
1.587689 1.4697015 -0.58036262 203
2.2020779 2.0384326 -0.69429481 130
3.4212584 3.167011 -0.90968716 24
4.5510426 4.2128363 -0.98915225 21
4.5666752 4.2273073 -0.76697731 9
4.5763555 4.2362685 -0.54644394 14
4.5873919 4.2464848 -0.33287105 9
4.5931778 4.2518406 -0.11031169 13
4.6861253 4.3378806 1.7073727 45
4.6981907 4.3490496 1.4756937 37
4.6752868 4.3278475 1.2375498 14
4.6608276 4.3144631 1.0034904 12
4.6545682 4.3086686 0.77618802 13
4.6349406 4.2904997 0.55185091 11
4.6167655 4.2736754 0.33342788 17
4.6152101 4.2722354 0.10927072 20
2.2956688 2.1124551 -0.83686215 1
2.1937778 2.0186958 -0.68978643 128
3.4378626 3.1634922 -0.91160232 19
4.5489888 4.1859412 -0.98600209 23
4.5718942 4.2070184 -0.76575404 9
4.5669131 4.202435 -0.54382521 7
4.5852752 4.2193313 -0.33180758 7
4.5837007 4.2178826 -0.10978305 12
4.6918664 4.3174162 1.7047896 40
4.6895623 4.3152957 1.4689554 60
4.6592126 4.2873683 1.2299223 13
4.6590714 4.2872386 1.0003692 12
4.6527238 4.2813969 0.77375859 10
4.6329889 4.2632375 0.55011004 10
4.6220775 4.2531967 0.33289862 17
4.6057935 4.2382121 0.10874955 18
2.2306595 2.0404444 -0.81095314 39
2.192569 2.0056021 -0.68753219 25
3.4544756 3.1599023 -0.91351742 20
4.5468154 4.1590948 -0.98285192 15
4.5697098 4.1800375 -0.76330757 17
4.5720115 4.1821423 -0.54295224 7
4.5904055 4.1989679 -0.33127582 8
4.5814404 4.1907673 -0.10943061 7
4.6832709 4.2839146 1.6970406 42
4.6807747 4.2816315 1.4622171 48
4.66467 4.2668996 1.2280155 11
4.6571951 4.2600622 0.99724787 15
4.6507583 4.2541742 0.77132922 10
4.6309166 4.2360244 0.54836923 9
4.6199398 4.2259836 0.33184013 18
4.6109705 4.2177792 0.10857584 16
2.2445617 2.0395315 -0.81354403 18
2.1775763 1.9786648 -0.68076962 28
3.4721994 3.15503 -0.91543257 20
4.5459652 4.1307125 -0.97970176 17
4.5615101 4.1448374 -0.75963783 16
4.5711093 4.1535597 -0.54120642 13
4.5969138 4.1770072 -0.33074409 7
4.5879121 4.1688275 -0.10925439 8
4.6831517 4.2553673 1.6918745 33
4.6877356 4.2595329 1.459971 47
4.6715283 4.2448063 1.2261087 12
4.6566758 4.2313099 0.99412662 11
4.6428013 4.2187028 0.76768517 11
4.6301923 4.2072458 0.54662836 9
4.6117563 4.1904936 0.33025235 15
4.6101317 4.1890178 0.10822839 26
2.2366207 2.0195243 -0.80836225 27
2.1765506 1.9652848 -0.67851537 14
3.482094 3.1441061 -0.91543257 19
4.544261 4.1031742 -0.97655159 15
4.5524096 4.1105323 -0.75596809 15
4.5693479 4.1258264 -0.5394606 15
4.5951905 4.1491609 -0.32968059 9
4.5861444 4.1409926 -0.10890196 6
4.6821566 4.2276855 1.6867085 33
4.693862 4.2382545 1.4577248 36
4.6629834 4.2103729 1.2203881 9
4.6552835 4.2034206 0.99100536 12
4.6412978 4.1907921 0.76525575 10
4.6212053 4.1726499 0.54401708 12
4.6174865 4.1692924 0.32972312 16
4.6084275 4.1611128 0.10788095 19
2.2357652 2.0060375 -0.80577135 19
2.168211 1.9454244 -0.674007 19
3.4919543 3.1331515 -0.91543257 17
4.5424285 4.0756879 -0.97340143 20
4.5505266 4.0829539 -0.75352156 17
4.5600429 4.0914927 -0.53684187 15
4.5933375 4.121366 -0.32861713 12
4.5916891 4.1198869 -0.10872574 9
4.6810341 4.2000518 1.6815425 27
4.6926475 4.2104721 1.4532326 32
4.6688809 4.1891475 1.2184812 9
4.6537619 4.1755819 0.98788404 8
4.6470523 4.1695619 0.76404107 10
4.6268764 4.1514587 0.54314667 11
4.6231294 4.1480966 0.32919386 17
4.5991511 4.1265821 0.10735979 16
2.2348473 1.992576 -0.8031804 27
2.1597681 1.9256359 -0.66949856 18
3.516432 3.1352291 -0.91926283 21
4.5552101 4.0613976 -0.97340143 10
4.555923 4.0620332 -0.7522983 16
4.5728741 4.0771465 -0.53684187 12
4.5839024 4.0869789 -0.3270219 12
4.5896835 4.092134 -0.10837331 8
4.6797843 4.1724668 1.6763765 31
4.684032 4.1762543 1.4464943 30
4.6673641 4.1613932 1.2146674 14
4.652112 4.1477942 0.98476279 9
4.6453109 4.1417308 0.7616117 9
4.6250238 4.1236429 0.5414058 14
4.6063237 4.1069698 0.32707685 16
4.6046295 4.1054597 0.10718606 20
2.241096 1.9855453 -0.8031804 25
2.1512225 1.9059198 -0.66499019 22
3.5483034 3.1436925 -0.92500824 19
4.5679469 4.0470667 -0.97340143 39
4.5538044 4.0345368 -0.74985182 15
4.5707474 4.0495481 -0.53509605 23
4.574296 4.0526919 -0.32542667 13
4.5950332 4.0710645 -0.10819709 16
4.6928692 4.1577444 1.6763765 33
4.6825414 4.1485944 1.4420021 33
4.6583719 4.1271806 1.2089469 14
4.64294 4.1135082 0.9800809 14
4.6434407 4.1139522 0.75918233 12
4.6230431 4.0958805 0.53966492 8
4.6117291 4.0858564 0.32654759 15
4.6100206 4.084343 0.10701235 19
2.2183249 1.9529659 -0.79281682 41
2.1498868 1.8927144 -0.662736 31
3.5507953 3.1260443 -0.92309308 28
4.5435786 4.0000691 -0.96552598 26
4.551558 4.0070944 -0.74740535 13
4.5684929 4.0220032 -0.53335023 23
4.5720153 4.0251045 -0.32436317 12
4.5777817 4.0301809 -0.10749222 11
4.6769042 4.1174464 1.6660444 38
4.6809239 4.120985 1.4375099 24
4.6565785 4.0995522 1.2051332 15
4.6410122 4.0858479 0.97695959 13
4.6339917 4.0796671 0.75553823 12
4.6284103 4.0747538 0.53879452 10
4.6170473 4.0647492 0.32601836 18
4.6003156 4.0500193 0.10649118 14
2.2026412 1.9269089 -0.78504407 32
3.0210843 2.6428974 -0.92873204 57
4.520926 3.9549847 -1.1720601 16
4.5486903 3.9792733 -0.96395093 29
4.5641241 3.9927754 -0.74740535 11
4.5661101 3.9945128 -0.53160441 12
4.5696063 3.9975712 -0.32329968 13
4.5753698 4.0026131 -0.10713979 10
4.6680031 4.0836506 1.6582954 40
4.6791787 4.0934272 1.4330176 58
4.6620464 4.0784397 1.2032263 13
4.6463914 4.064744 0.97539896 13
4.6393147 4.0585532 0.75432354 11
4.626193 4.0470743 0.53705364 10
4.6147623 4.0370746 0.32495984 18
4.5904403 4.0157971 0.10597002 16
2.1941051 1.9073064 -0.77986228 30
3.0367253 2.6397851 -0.93098623 26
4.5407357 3.9472015 -1.1739752 31
4.5388103 3.9455276 -0.95922565 20
4.5466838 3.9523718 -0.74251235 9
4.5636005 3.9670773 -0.52985859 13
4.5746059 3.9766443 -0.32276794 13
4.5803757 3.9816599 -0.10696357 13
4.6735182 4.0626273 1.6557124 33
4.6773071 4.0659208 1.4285254 29
4.6600189 4.0508928 1.1994126 12
4.6516833 4.0436468 0.97383833 11
4.6370597 4.0309343 0.75189418 11
4.6238475 4.0194492 0.53531277 10
4.6123495 4.0094543 0.32390136 16
4.5954876 3.9947965 0.10579629 17
2.1927769 1.8940904 -0.77727139 39
3.0523763 2.6366005 -0.93324047 36
0.1 0.1 0.1 -1
4.5362368 3.9183385 -0.95607549 22
4.5590777 3.9380686 -0.74251235 9
4.5685019 3.9462087 -0.52898568 8
4.5795193 3.9557257 -0.32223621 12
4.5852957 3.9607148 -0.10678736 8
4.6716366 4.035295 1.6505463 37
4.6753087 4.0384669 1.4240332 36
4.6504359 4.0169821 1.1936921 12
4.6494141 4.0160995 0.97071707 15
4.6421885 4.0098586 0.75067949 12
4.6213741 3.9918792 0.53357196 9
4.6022515 3.9753611 0.32231361 16
4.5928822 3.967268 0.10544885 15
2.1767294 1.8683203 -0.76949865 33
3.0606444 2.6269982 -0.93324047 35
3.0386662 2.608134 -0.78137338 38
4.5335374 3.8912046 -0.95292532 79
4.5714273 3.9237263 -0.74251235 8
4.5657582 3.9188607 -0.5272398 8
4.5767694 3.9283116 -0.32117271 15
4.5825419 3.9332662 -0.10643493 18
4.6696296 4.0080147 1.6453803 32
4.687973 4.0237594 1.4240332 29
4.6555839 3.995959 1.1917852 9
4.6545129 3.9950402 0.96915638 13
4.6321673 3.9758604 0.74703538 11
4.6187735 3.9643645 0.53183109 12
4.6071401 3.9543793 0.32178435 13
4.5977359 3.9463074 0.10527513 16
2.1752393 1.8552052 -0.76690775 38
3.0688822 2.6173699 -0.93324047 51
3.0244417 2.5794678 -0.77562803 23
4.5457392 3.8769431 -0.95292532 14
4.5610771 3.8900242 -0.73884255 11
4.5553088 3.8851044 -0.52462107 8
4.5662942 3.8944738 -0.31957749 14
4.5872684 3.9123621 -0.10625871 14
4.6748476 3.987056 1.6427972 29
4.6857624 3.9963651 1.419541 57
4.6606455 3.9749434 1.1898783 16
4.6444945 3.9611688 0.9644745 8
4.6295304 3.9484062 0.74460602 11
4.6236258 3.9433701 0.53096068 9
4.6195402 3.9398859 0.32178435 16
4.6025033 3.9253557 0.10510141 13
2.1663201 1.8358734 -0.76172596 36
3.0770898 2.6077158 -0.93324047 61
3.0774567 2.6080267 -0.78711879 70
4.542829 3.849874 -0.94977516 30
4.5581322 3.8628426 -0.73639607 13
4.5674915 3.8707743 -0.52462107 8
4.5785065 3.8801091 -0.31957749 10
4.5919089 3.8914673 -0.10608249 16
4.6726103 3.9598584 1.6376312 23
4.675992 3.9627244 1.4128027 33
4.6431541 3.9348955 1.182251 14
4.6418452 3.9337862 0.96135324 11
4.6419115 3.9338427 0.74460602 11
4.6283913 3.9223845 0.53009021 9
4.6090403 3.9059854 0.3201966 15
4.591929 3.8914843 0.10458025 15
2.1573009 1.8166161 -0.75654411 34
3.0852668 2.5980361 -0.93324047 35
3.025574 2.5477698 -0.77179778 1
4.547348 3.8292224 -0.94820011 66
4.5550613 3.8357179 -0.7339496 11
4.5567694 3.8371561 -0.52200234 10
4.575397 3.8528421 -0.31851399 9
4.5964637 3.8705819 -0.10590628 10
4.670248 3.932714 1.6324652 20
4.673511 3.9354615 1.4083104 29
4.647984 3.9139662 1.1803441 12
4.646625 3.9128218 0.95979255 20
4.623877 3.893666 0.73974723 11
4.6178303 3.8885741 0.52747893 14
4.6060114 3.8786218 0.31913811 14
4.5888357 3.8641586 0.1042328 12
2.1481822 1.7974336 -0.75136232 31
3.0859416 2.5820785 -0.93098623 40
3.0712004 2.5697441 -0.78137338 1
4.536634 3.7959063 -0.94347483 8
4.5518656 3.808651 -0.73150307 12
4.5535212 3.8100362 -0.52025652 9
4.5721612 3.8256328 -0.31745052 11
4.5855961 3.836874 -0.10537762 10
4.6751709 3.9118233 1.6298822 20
4.6634312 3.9020002 1.4015721 26
4.6527286 3.8930454 1.1784372 10
4.6361685 3.879189 0.95511067 20
4.6284738 3.8727508 0.73853254 11
4.6223836 3.8676548 0.52660853 13
4.6105151 3.8577244 0.31860885 15
4.6009526 3.8497233 0.1042328 18
2.1386542 1.7786999 -0.74618053 28
3.1085703 2.5853705 -0.93549466 49
0.1 0.1 0.1 -1
4.5402846 3.7761147 -0.94189978 1
4.5555153 3.7887821 -0.7302798 14
4.564806 3.796509 -0.52025652 16
4.5681372 3.7992795 -0.31638703 14
4.589273 3.8168581 -0.10520141 9
4.6644745 3.8794024 1.6221331 29
4.6600041 3.8756845 1.3970798 26
4.6491642 3.8666692 1.1746235 12
4.6324692 3.8527839 0.95198941 9
4.6323128 3.8526537 0.73731786 10
4.6261797 3.8475528 0.52573812 14
4.606586 3.8312569 0.31755036 13
4.589293 3.8168747 0.10371163 13
2.1290338 1.7600386 -0.74099869 28
3.1237364 2.5823433 -0.93774885 23
0.1 0.1 0.1 -1
4.5362463 3.7500427 -0.93874961 3
4.5590873 3.7689254 -0.7290566 12
4.5606942 3.7702537 -0.5185107 11
4.5716929 3.7793462 -0.31585529 14
4.5774593 3.7841129 -0.10467276 14
4.6685185 3.8593903 1.6195501 38
4.6639724 3.8556321 1.3948338 25
4.6454844 3.8403485 1.1708097 12
4.6362672 3.8327289 0.95042872 10
4.6284227 3.8262439 0.73488849 10
4.6222186 3.821115 0.52399725 14
4.6102366 3.8112094 0.3170211 10
4.5851855 3.7905002 0.10336419 15
2.1423233 1.7590981 -0.74358964 45
3.1398122 2.5781531 -0.94000304 20
0.1 0.1 0.1 -1
4.5257607 3.7161791 -0.93402433 49
4.5485492 3.7348912 -0.72538686 10
4.5577741 3.7424657 -0.51676488 7
4.5687656 3.7514913 -0.3147918 12
4.5822554 3.7625678 -0.10449654 19
4.6588926 3.825496 1.611801 40
4.6616707 3.8277771 1.3903415 38
4.6430211 3.8124635 1.1669961 13
4.6336842 3.8047969 0.94730747 9
4.6334143 3.8045754 0.73367381 10
4.6117673 3.7868006 0.52138597 10
4.6151319 3.7895634 0.31649184 12
4.5900025 3.7689292 0.10319047 10
2.1253877 1.7340417 -0.7358169 31
3.1478961 2.5682764 -0.94000304 38
0.1 0.1 0.1 -1
3.542702 2.8903871 -0.72926354 136
4.5679507 3.7268574 -0.72661006 11
4.5772276 3.7344263 -0.51763779 14
4.5650539 3.7244942 -0.3137283 12
4.5863061 3.741833 -0.10432032 16
4.6634021 3.8047335 1.609218 33
4.6661224 3.806953 1.3880955 43
4.6473689 3.7916524 1.1650892 15
4.6303077 3.7777326 0.94418621 9
4.629962 3.7774506 0.73124439 9
4.623641 3.7722936 0.52138597 9
4.6038017 3.7561073 0.31490409 10
4.5940733 3.7481701 0.10301675 12
2.115819 1.7151916 -0.73063511 19
3.1710856 2.5706449 -0.94451147 21
3.5987051 2.9172952 -0.90394181 1
3.5440938 2.8730245 -0.72768843 130
4.5565066 3.6937385 -0.72294033 9
4.5657215 3.7012084 -0.51501906 8
4.568975 3.7038457 -0.31319657 12
4.5825047 3.7148137 -0.10396789 15
4.6528187 3.7718136 1.601469 31
4.66292 3.7800024 1.3836032 38
4.6516323 3.7708519 1.1631824 13
4.63448 3.7569473 0.94262558 22
4.6418061 3.7628865 0.73124439 9
4.6277308 3.751476 0.52051556 11
4.6078219 3.7353373 0.31437483 12
4.590292 3.7211263 0.10266931 9
2.121197 1.708536 -0.73063511 60
3.1791458 2.5606699 -0.94451147 21
3.6307836 2.9244454 -0.90968716 1
3.5377207 2.8494871 -0.72453827 17
4.5526295 3.666954 -0.72049385 14
4.5773268 3.6868465 -0.51501906 18
4.5728116 3.6832099 -0.31266484 11
4.5785789 3.6878552 -0.10361546 16
4.6721687 3.7632377 1.6040521 45
4.6595945 3.7531097 1.3791111 26
4.6405206 3.7377467 1.1574618 11
4.6308746 3.7299771 0.93950427 10
4.630414 3.7296062 0.72760034 11
4.6239767 3.724421 0.51877469 11
4.6039801 3.7083149 0.31331635 9
4.5941725 3.7004151 0.10249559 8
2.8429465 2.2751865 -0.976771 51
3.1947813 2.5567572 -0.94676566 53
0.1 0.1 0.1 -1
3.531235 2.8260183 -0.7213881 2
4.5563784 3.6464319 -0.71927059 13
4.5655532 3.6537747 -0.51240027 16
4.5687671 3.6563468 -0.31160134 12
4.5745296 3.6609583 -0.10326302 10
4.6613402 3.7304323 1.596303 43
4.6485381 3.7201867 1.3723726 34
4.6445761 3.717016 1.1555549 9
4.6348581 3.7092388 0.93794364 19
4.6343584 3.7088389 0.72638565 11
4.6045427 3.6849775 0.51529294 9
4.6000142 3.6813536 0.31225786 10
4.5979686 3.6797166 0.10232187 13
2.85008 2.2662439 -0.976771 34
3.2104235 2.5527716 -0.94901985 45
3.6414044 2.8954663 -0.90777206 6
3.5323663 2.8087645 -0.71981305 33
4.5522747 3.6197457 -0.71682411 13
4.5458202 3.6146135 -0.50890863 17
4.564599 3.6295455 -0.31053784 12
4.5703564 3.6341233 -0.10291059 10
4.6579137 3.7037446 1.5911369 38
4.652575 3.6994996 1.3701266 28
4.6408634 3.690187 1.1517413 10
4.6387568 3.6885121 0.93638301 11
4.6226797 3.6757283 0.72274154 9
4.6160965 3.6704938 0.51529294 8
4.6037407 3.6606688 0.3117286 11
4.5860281 3.646585 0.1018007 9
2.8571856 2.2572792 -0.976771 58
3.2260721 2.5487127 -0.9512741 25
3.6504827 2.8840122 -0.90777206 13
3.5489216 2.8037753 -0.7213881 2
4.5480485 3.5931213 -0.71437758 14
4.5493369 3.5941391 -0.50803572 16
4.560308 3.6028068 -0.30947438 12
4.573905 3.613549 -0.10273437 13
4.6543655 3.6771154 1.5859709 34
4.6641746 3.684865 1.3701266 57
4.6524334 3.6755891 1.1517413 12
4.6193194 3.6494281 0.93014044 7
4.6264157 3.6550343 0.72152686 9
4.6197882 3.6497982 0.51442254 11
4.5995469 3.6338069 0.31067008 12
4.5896163 3.6259613 0.10162698 11
2.8566654 2.2423282 -0.9741801 84
3.2340631 2.5385652 -0.9512741 40
3.6363635 2.8543491 -0.90202665 11
3.5266407 2.7682226 -0.71508777 4
4.551507 3.5726874 -0.71315432 14
4.5606055 3.5798292 -0.50803572 14
4.5637488 3.5822966 -0.30894262 11
4.5773702 3.5929885 -0.10255816 14
4.6506963 3.6505454 1.5808049 31
4.6527324 3.6521437 1.3633883 55
4.6407924 3.6427715 1.1460207 11
4.6307616 3.6348979 0.93014044 8
4.6300678 3.6343532 0.72031218 9
4.6233954 3.6291156 0.51355213 8
4.603085 3.6131732 0.31014085 14
4.5773902 3.593004 0.10110582 11
2.9170094 2.2749209 -0.99231642 31
3.2420225 2.5283926 -0.9512741 64
3.6453128 2.842911 -0.90202665 12
3.5353198 2.7571297 -0.71508777 4
