# .PCD v0.7 - Point Cloud Data file format
VERSION 0.7
FIELDS x y z intensity
SIZE 4 4 4 4
TYPE F F F F
COUNT 1 1 1 1
WIDTH 1478
HEIGHT 1
VIEWPOINT 0 0 0 1 0 0 0
POINTS 1478
DATA ascii
1.2955214 -0.010853589 -0.25279728 199
1.6490966 -0.013815762 -0.2630389 65
1.8757405 -0.015714534 -0.23119412 57
3.765439 -0.031546004 -0.32996136 70
3.8444183 -0.032207675 -0.20472102 69
40.862221 -0.34233454 -0.72019792 15
26.459574 -0.2216724 7.0748768 142
27.507717 -0.23045351 6.340766 70
27.053356 -0.22664697 5.2552962 26
27.132458 -0.22730966 4.2870736 28
119.10725 -0.99785388 14.576301 -1
48.812313 -0.40893862 4.2650938 102
26.801443 -0.22453649 1.4205085 56
26.924992 -0.22557156 0.46783155 62
0.1 0.1 0.1 -1
0.1 0.1 0.1 -1
1.3151094 -0.015149643 -0.25662753 186
1.5996724 -0.018427718 -0.25516349 203
1.8856061 -0.021721583 -0.23241736 50
3.7653213 -0.043375306 -0.32996136 60
40.759544 -0.46953702 -2.1705744 24
40.850945 -0.47058991 -0.72002167 41
26.391127 -0.30401742 7.0567956 157
27.068384 -0.3118192 6.2396913 91
27.052511 -0.31163633 5.2552962 22
118.52177 -1.3653332 18.727659 -1
119.10352 -1.3720348 14.576301 -1
28.230564 -0.32520714 2.4667909 47
119.82387 -1.3803329 6.351007 -1
26.944145 -0.310388 0.46817899 50
0.1 0.1 0.1 -1
0.1 0.1 0.1 -1
1.3052415 -0.019137211 -0.2547124 188
1.6391032 -0.02403223 -0.26146382 68
1.8855286 -0.027645273 -0.23241736 44
3.7751272 -0.055350222 -0.33083427 102
40.75787 -0.59758437 -2.1705744 42
40.859261 -0.59907097 -0.72019792 20
26.409361 -0.38720921 7.0619617 130
27.115988 -0.39756963 6.2509217 188
27.120106 -0.39763001 5.2686439 92
26.537909 -0.38909394 4.1934352 25
25.18936 -0.36932176 3.0828874 73
28.209482 -0.41360223 2.4650502 126
119.81894 -1.7567633 6.351007 -1
26.753086 -0.39224884 0.46487829 45
0.1 0.1 0.1 -1
0.1 0.1 0.1 -1
1.3248016 -0.023587085 -0.25854266 168
1.5995251 -0.028478328 -0.25516349 210
1.8953557 -0.033745367 -0.23364061 51
16.80294 -0.29916358 -1.4726052 128
40.745808 -0.72544807 -2.1700428 28
40.837185 -0.72707504 -0.71984547 44
26.514265 -0.47206631 7.0903749 197
27.007433 -0.48084679 6.2262144 99
27.099094 -0.48247874 5.2648306 62
26.645191 -0.47439736 4.2106023 39
26.13089 -0.46524063 3.1982832 72
27.490889 -0.48945439 2.4023793 50
29.364128 -0.52280593 1.5565259 44
26.841694 -0.47789595 0.46644178 35
0.1 0.1 0.1 -1
0.1 0.1 0.1 -1
1.3050954 -0.027337853 -0.2547124 166
1.6487929 -0.034537286 -0.2630389 69
1.8753949 -0.039283924 -0.23119412 43
16.254139 -0.34047565 -1.424595 106
40.743328 -0.85345101 -2.1700428 43
40.834698 -0.85536504 -0.71984547 28
30.44367 -0.63770401 8.1416616 177
26.684292 -0.55895621 6.1520929 133
27.185774 -0.56946075 5.281992 67
27.354591 -0.57299697 4.322968 130
26.129299 -0.5473308 3.1982832 101
27.359737 -0.5731048 2.3910639 44
29.512098 -0.61819029 1.5644647 74
26.940023 -0.56431305 0.46817899 75
0.1 0.1 0.1 -1
0.1 0.1 0.1 -1
1.3148152 -0.031674165 -0.25662753 155
1.6190592 -0.039003465 -0.25831366 225
1.8752623 -0.045175448 -0.23119412 41
15.934302 -0.38386056 -1.3966618 1
40.740444 -0.98144555 -2.1700428 40
40.841805 -0.98388737 -0.72002167 28
26.6653 -0.64237249 7.1317034 151
26.584988 -0.64043772 6.129632 133
27.066086 -0.65202749 5.25911 125
26.918173 -0.6484642 4.2543001 61
31.049295 -0.74798381 3.8007703 1
27.337885 -0.65857518 2.389323 92
28.242157 -0.6803593 1.4972498 36
119.94709 -2.8895497 2.084656 -1
0.1 0.1 0.1 -1
0.1 0.1 0.1 -1
1.3048979 -0.035537418 -0.2547124 154
1.6386718 -0.044627368 -0.26146382 69
1.8949535 -0.051606912 -0.23364061 40
15.923059 -0.43364647 -1.3957889 1
16.819925 -0.45807159 -0.8959868 29
40.828518 -1.1119184 -0.71984547 68
26.682465 -0.72666669 7.136869 197
26.573103 -0.72368836 6.1273856 83
27.52511 -0.74961513 5.348732 86
26.935751 -0.73356462 4.2574215 118
119.06728 -3.2426624 14.576301 -1
27.355597 -0.74499869 2.3910639 14
28.349686 -0.77207154 1.5030717 104
26.166348 -0.71261078 0.45480245 22
0.1 0.1 0.1 -1
0.1 0.1 0.1 -1
1.334211 -0.040530752 -0.26045781 151
1.5891703 -0.048275925 -0.25358841 225
1.8848617 -0.057258457 -0.23241736 45
119.48682 -3.6297789 -10.474963 -1
16.47904 -0.50060141 -0.87790751 48
28.212603 -0.85704434 -0.49745992 18
26.699364 -0.81107509 7.142035 226
26.950558 -0.81870592 6.2149839 127
117.74382 -3.5768299 22.882277 -1
26.913567 -0.81758219 4.2543001 68
119.0565 -3.6167066 14.576301 -1
27.402908 -0.83244741 2.395416 39
119.77657 -3.6385806 6.351007 -1
26.193962 -0.79572195 0.45532364 53
0.1 0.1 0.1 -1
0.1 0.1 0.1 -1
1.3733146 -0.04603745 -0.26811832 143
1.6482286 -0.055253357 -0.2630389 65
1.8747532 -0.062847108 -0.23119412 42
15.840371 -0.53101468 -1.3888055 1
16.22788 -0.54400516 -0.86461395 56
40.830719 -1.368763 -0.72002167 69
26.735304 -0.89624417 7.1523671 175
26.616726 -0.89226907 6.1386161 146
27.833809 -0.93306917 5.4097514 49
26.762787 -0.89716542 4.2308908 153
119.04456 -3.9907153 14.576301 -1
27.848198 -0.93355155 2.4345851 89
27.236454 -0.9130441 1.4443249 61
119.91453 -4.0198793 2.084656 -1
0.1 0.1 0.1 -1
0.1 0.1 0.1 -1
1.3927798 -0.051070917 -0.27194858 126
1.6085727 -0.058983684 -0.25673857 225
1.894383 -0.069463871 -0.23364061 41
119.46165 -4.3804598 -10.474963 -1
16.066425 -0.58912903 -0.8561061 73
40.826218 -1.4970294 -0.72002167 99
26.74201 -0.98058504 7.1549501 199
26.711172 -0.97945422 6.1610775 156
27.663971 -1.0143918 5.3773351 47
27.914724 -1.0235865 4.4134851 35
27.555777 -1.0104244 3.3744135 52
27.964592 -1.0254151 2.4450302 37
26.83428 -0.98396832 1.4231548 63
26.408264 -0.96834707 0.45914549 53
0.1 0.1 0.1 -1
0.1 0.1 0.1 -1
1.4024197 -0.055836674 -0.2738637 120
1.6379815 -0.065215461 -0.26146382 68
1.8743213 -0.074625209 -0.23119412 38
119.4473 -4.7557378 -10.474963 -1
16.014605 -0.63761389 -0.85344738 98
40.821312 -1.6252812 -0.72002167 115
26.777411 -1.0661299 7.1652822 191
116.84126 -4.651979 26.95331 -1
27.709692 -1.1032482 5.386869 70
27.783066 -1.1061696 4.3931971 43
27.453285 -1.0930395 3.3622665 24
29.952065 -1.1925273 2.6191158 27
26.980726 -1.0742248 1.4310936 32
119.88691 -4.7732401 2.084656 -1
0.1 0.1 0.1 -1
0.1 0.1 0.1 -1
1.382636 -0.059158359 -0.27003345 111
1.5983163 -0.068386592 -0.25516349 225
1.8740916 -0.080186099 -0.23119412 49
15.834781 -0.67751718 -1.3888055 91
16.022619 -0.68555421 -0.85397911 88
40.836288 -1.7472479 -0.72037411 46
115.82175 -4.9556246 30.996174 -1
116.82693 -4.9986329 26.95331 -1
26.823618 -1.1476927 5.2152519 31
27.769793 -1.1881763 4.3916364 1
27.618507 -1.1817033 3.3829165 49
31.212418 -1.3354747 2.72966 23
27.007351 -1.1555541 1.4326813 73
27.57061 -1.179654 0.47947088 23
0.1 0.1 0.1 -1
0.1 0.1 0.1 -1
1.4020636 -0.064157769 -0.2738637 82
1.6474305 -0.075385645 -0.2630389 55
1.88376 -0.086199962 -0.23241736 34
15.82275 -0.72404152 -1.3879327 46
16.020515 -0.73309118 -0.85397911 83
28.475775 -1.303038 -0.50239402 66
115.80654 -5.2992525 30.996174 -1
26.117125 -1.1951072 6.0263109 69
26.780869 -1.2254798 5.2076249 54
27.805613 -1.2723716 4.3978786 91
27.63471 -1.2645513 3.3853457 22
119.41959 -5.4645834 10.445127 -1
28.799402 -1.317847 1.5279465 37
27.766748 -1.2705933 0.48294532 51
0.1 0.1 0.1 -1
0.1 0.1 0.1 -1
1.3920401 -0.068325661 -0.27194858 97
1.6175816 -0.079395942 -0.25831366 190
1.8636378 -0.091473147 -0.22997087 44
15.820262 -0.77650768 -1.3879327 36
16.017996 -0.78621304 -0.85397911 71
28.38142 -1.3930484 -0.50080806 100
29.796198 -1.4624901 7.9763489 170
26.151949 -1.283619 6.035295 188
27.011971 -1.3258315 5.2533894 77
27.8703 -1.367961 4.4088035 136
27.551054 -1.3522915 3.3756282 42
28.934795 -1.4202098 2.5312026 11
28.735029 -1.4104047 1.524771 34
25.615292 -1.2572782 0.44559523 18
0.1 0.1 0.1 -1
0.1 0.1 0.1 -1
1.4016201 -0.0732105 -0.2738637 63
1.6469095 -0.086022638 -0.2630389 40
1.883164 -0.098362871 -0.23241736 34
15.817744 -0.82620454 -1.3879327 48
16.005474 -0.83601022 -0.85344738 57
28.01745 -1.463429 -0.49446425 71
29.858988 -1.5596176 7.9944301 171
116.77464 -6.0994625 26.95331 -1
26.38027 -1.3779145 5.1313505 31
28.546482 -1.4910618 4.5164876 38
27.477282 -1.4352145 3.3671253 20
28.820759 -1.505388 2.5216279 24
28.720484 -1.5001504 1.5242417 38
25.571276 -1.3356586 0.44490033 52
0.1 0.1 0.1 -1
0.1 0.1 0.1 -1
1.3621705 -0.075680189 -0.26620319 109
0.1 0.1 0.1 -1
1.8828275 -0.10460713 -0.23241736 41
15.824863 -0.87920618 -1.3888055 42
119.64571 -6.6473398 -6.3809147 -1
27.912613 -1.5507836 -0.49270207 58
30.094797 -1.6720227 8.0590057 161
116.75377 -6.4866676 26.95331 -1
26.395159 -1.4664762 5.1351643 66
118.34712 -6.575192 18.727659 -1
27.551657 -1.5307295 3.376843 31
28.775822 -1.5987422 2.5181463 19
27.85788 -1.5477428 1.4787261 30
25.586674 -1.4215579 0.4452478 74
0.1 0.1 0.1 -1
0.1 0.1 0.1 -1
1.3815221 -0.081109688 -0.27003345 69
1.666036 -0.097813606 -0.26618907 1
1.8725817 -0.10993998 -0.23119412 38
15.822023 -0.92891705 -1.3888055 46
119.62424 -7.0231848 -6.3809147 -1
27.88764 -1.6372939 -0.49234962 126
30.012243 -1.7620302 8.0383415 170
116.73281 -6.8534279 26.95331 -1
26.851006 -1.5764327 5.2247863 70
27.224813 -1.5983791 4.3089223 25
27.56653 -1.6184415 3.3792722 27
119.33905 -7.0064411 10.445127 -1
27.803036 -1.6323268 1.4760798 25
25.671913 -1.5072078 0.44681129 26
0.1 0.1 0.1 -1
0.1 0.1 0.1 -1
1.3224834 -0.081813306 -0.25854266 125
0.1 0.1 0.1 -1
1.8821331 -0.11643514 -0.23241736 37
15.82897 -0.9792338 -1.3896785 49
119.60159 -7.3989601 -6.3809147 -1
27.872379 -1.72428 -0.49217343 122
29.582302 -1.8300616 7.9246888 199
116.71071 -7.2201204 26.95331 -1
117.57337 -7.2734876 22.882277 -1
26.588705 -1.6448675 4.2090416 62
28.076473 -1.7369059 3.4424362 48
27.800734 -1.7198477 2.4337149 16
27.787804 -1.7190478 1.4755507 27
25.647091 -1.5866162 0.44646382 26
0.1 0.1 0.1 -1
0.1 0.1 0.1 -1
1.3418083 -0.087241195 -0.26237294 64
1.6358254 -0.10635749 -0.26146382 84
1.8718541 -0.12170352 -0.23119412 37
15.825815 -1.0289571 -1.3896785 54
119.57775 -7.7746625 -6.3809147 -1
27.896757 -1.8137811 -0.49270207 133
29.66317 -1.928629 7.9479356 149
27.450722 -1.784781 6.340766 142
117.54994 -7.6428189 22.882277 -1
26.642548 -1.7322353 4.2184052 71
118.86046 -7.7280259 14.576301 -1
27.705723 -1.8013605 2.4258809 55
27.792231 -1.806985 1.4760798 28
119.7291 -7.784502 2.084656 -1
0.1 0.1 0.1 -1
0.1 0.1 0.1 -1
1.3121667 -0.089224473 -0.25662753 125
1.6355027 -0.11121061 -0.26146382 66
1.8813868 -0.12793019 -0.23241736 42
15.84257 -1.0772603 -1.3914243 83
119.55415 -8.1294222 -6.3809147 -1
28.010958 -1.9046839 -0.49481666 153
29.676594 -2.0179436 7.9531016 206
30.18692 -2.0526447 6.9741688 147
28.118275 -1.9119813 5.4745846 56
26.814674 -1.8233395 4.2464972 62
27.609798 -1.877406 3.3865604 1
27.312632 -1.8571994 2.3919342 97
27.846525 -1.893503 1.4792553 36
26.075842 -1.7731004 0.45410758 19
0.1 0.1 0.1 -1
0.1 0.1 0.1 -1
1.3608475 -0.096591875 -0.26620319 60
1.6351655 -0.11606275 -0.26146382 127
1.8809988 -0.13351181 -0.23241736 50
15.859179 -1.1256719 -1.3931701 69
119.52951 -8.4841099 -6.3809147 -1
40.761105 -2.8931909 -0.72019792 99
115.6368 -8.2078085 30.996174 -1
26.768965 -1.9000399 6.1857843 1
30.482111 -2.1635962 5.9360437 70
27.173697 -1.9287674 4.3042407 95
27.604107 -1.9593176 3.3865604 29
27.37656 -1.9431666 2.3980272 9
24.981998 -1.7732025 1.3273605 38
26.060492 -1.8497531 0.45393386 64
0.1 0.1 0.1 -1
0.1 0.1 0.1 -1
1.3213509 -0.098425232 -0.25854266 137
1.6445982 -0.12250338 -0.2630389 37
1.8904189 -0.14081416 -0.23364061 49
3.5266786 -0.26269642 -0.30988434 131
119.49917 -8.9012938 -6.3809147 -1
40.760727 -3.0361989 -0.72037411 140
30.973162 -2.3071392 8.3043919 191
26.975956 -2.0093942 6.235199 214
26.920824 -2.0052874 5.243855 130
27.265301 -2.0309467 4.3198471 43
27.597099 -2.0556619 3.3865604 20
27.310003 -2.0342767 2.3928046 16
25.035408 -1.8648459 1.330536 50
26.861517 -2.0008698 0.46800527 19
0.1 0.1 0.1 -1
0.1 0.1 0.1 -1
1.3503915 -0.10485534 -0.26428807 53
1.6442053 -0.12766944 -0.2630389 92
1.880072 -0.14598404 -0.23241736 40
3.4265165 -0.26606253 -0.30115521 1
119.47061 -9.2766676 -6.3809147 -1
40.870609 -3.1735256 -0.7224887 125
30.90797 -2.3999455 8.2888937 173
26.930649 -2.091114 6.2262144 128
117.44462 -9.1193523 22.882277 -1
26.342937 -2.0454793 4.1747074 146
27.639986 -2.1461926 3.3926339 25
27.343206 -2.1231482 2.3962865 39
26.54274 -2.0609937 1.410982 70
26.64576 -2.0689929 0.46435714 69
0.1 0.1 0.1 -1
0.1 0.1 0.1 -1
0.1 0.1 0.1 -1
1.6536392 -0.13362963 -0.26461399 27
1.8993894 -0.15348856 -0.23486386 33
3.4157343 -0.27602354 -0.30028227 24
119.44088 -9.6519489 -6.3809147 -1
40.910267 -3.3059351 -0.72336984 225
27.010059 -2.1826673 7.2453556 142
27.030788 -2.1843424 6.2509217 158
117.41539 -9.4882698 22.882277 -1
26.031174 -2.1035643 4.126328 117
31.511436 -2.5464211 3.868793 53
27.296682 -2.2058291 2.3928046 28
119.44247 -9.6520767 6.351007 -1
26.688959 -2.1567194 0.46522573 66
0.1 0.1 0.1 -1
0.1 0.1 0.1 -1
1.369267 -0.11498056 -0.26811832 51
1.6335301 -0.13717136 -0.26146382 133
1.8890078 -0.15862441 -0.23364061 48
3.4148505 -0.286753 -0.30028227 132
119.40997 -10.027135 -6.3809147 -1
40.959461 -3.4394619 -0.7244271 153
26.964561 -2.2642775 7.2350235 141
24.741869 -2.0776329 5.7230859 82
25.257339 -2.120918 4.9235029 30
118.11394 -9.9183044 18.727659 -1
31.453827 -2.6412516 3.8627195 30
119.12529 -10.00323 10.445127 -1
25.564022 -2.1466711 1.3596448 28
26.293478 -2.2079251 0.45845062 61
0.1 0.1 0.1 -1
0.1 0.1 0.1 -1
0.1 0.1 0.1 -1
1.6527669 -0.14401704 -0.26461399 20
1.8885001 -0.16455811 -0.23364061 41
3.38416 -0.29488534 -0.29766354 20
119.37788 -10.402223 -6.3809147 -1
40.958412 -3.5689907 -0.72460335 146
26.96694 -2.3498166 7.2376065 141
24.676975 -2.1502759 5.7096095 102
25.240772 -2.1994035 4.9215961 52
25.791119 -2.247359 4.0904331 9
31.73214 -2.7650414 3.8979456 67
24.215633 -2.110076 2.1238427 12
119.37946 -10.402361 6.351007 -1
119.52897 -10.415388 2.084656 -1
0.1 0.1 0.1 -1
0.1 0.1 0.1 -1
1.3587424 -0.12269887 -0.26620319 44
1.6228008 -0.1465442 -0.25988874 169
1.8978585 -0.17138281 -0.23486386 43
3.3038452 -0.29834801 -0.29068023 137
119.34461 -10.777207 -6.3809147 -1
40.956959 -3.6985466 -0.72477955 143
27.046017 -2.4423435 7.2608538 154
24.670097 -2.2277901 5.7096095 159
25.331507 -2.2875175 4.9406648 72
26.708651 -2.4118783 4.237133 99
30.487581 -2.7531278 3.7461092 52
24.069981 -2.1735978 2.1116567 133
27.797718 -2.5102246 1.4792553 28
26.299002 -2.3748856 0.45879805 1
0.1 0.1 0.1 -1
0.1 0.1 0.1 -1
0.1 0.1 0.1 -1
1.6911863 -0.15777977 -0.27091432 1
1.8874596 -0.17609116 -0.23364061 36
3.1839204 -0.2970449 -0.28020528 42
119.31211 -11.131262 -6.3809147 -1
40.935848 -3.8191233 -0.72460335 140
30.838106 -2.8770511 8.2811441 165
24.7507 -2.3091247 5.7298245 84
25.207319 -2.3517251 4.9177823 33
118.01714 -11.010448 18.727659 -1
118.59641 -11.06449 14.576301 -1
24.093184 -2.2477813 2.1142681 43
27.889574 -2.6019669 1.4845479 46
26.759737 -2.4965584 0.46696296 91
0.1 0.1 0.1 -1
0.1 0.1 0.1 -1
1.3579904 -0.1307596 -0.26620319 45
0.1 0.1 0.1 -1
1.8869289 -0.18169059 -0.23364061 35
3.1433611 -0.30267125 -0.27671361 35
119.27856 -11.485219 -6.3809147 -1
40.894478 -3.9376905 -0.72407466 1
30.79097 -2.9648333 8.270813 219
24.869835 -2.3946927 5.7590237 137
25.424971 -2.4481461 4.9616404 78
26.900341 -2.5902083 4.2699065 9
30.697952 -2.9558766 3.7740471 57
23.550934 -2.2676969 2.0672648 53
119.28014 -11.485371 6.351007 -1
27.180168 -2.6171525 0.47443298 105
0.1 0.1 0.1 -1
0.1 0.1 0.1 -1
0.1 0.1 0.1 -1
1.6508554 -0.16448629 -0.26461399 27
1.906068 -0.1899149 -0.23608711 42
3.1225147 -0.31111801 -0.27496779 47
119.23981 -11.880697 -6.3809147 -1
119.39021 -11.895682 -2.1146011 -1
115.35654 -11.493779 30.996174 -1
24.522381 -2.4433365 5.6804099 225
25.524162 -2.5431509 4.9826155 47
26.803144 -2.6705849 4.2558608 100
118.52455 -11.809431 14.576301 -1
23.672152 -2.3586223 2.0785804 134
26.670324 -2.6573513 1.4205085 33
26.703726 -2.6606791 0.46626806 28
0.1 0.1 0.1 -1
0.1 0.1 0.1 -1
1.3766445 -0.1415339 -0.27003345 49
1.660154 -0.17068173 -0.26618907 87
1.9153348 -0.19691707 -0.23731036 40
3.1215219 -0.32092613 -0.27496779 38
119.2019 -12.255241 -6.3809147 -1
40.868198 -4.2016916 -0.72407466 163
27.619106 -2.8395419 7.423584 170
116.32068 -11.959021 26.95331 -1
25.516047 -2.6233246 4.9826155 154
26.735668 -2.7487149 4.2464972 42
27.360592 -2.812964 3.3659108 1
23.575438 -2.4238093 2.0707467 56
26.582376 -2.732955 1.4162745 37
26.486368 -2.7230842 0.46261993 45
0.1 0.1 0.1 -1
0.1 0.1 0.1 -1
0.1 0.1 0.1 -1
1.6595788 -0.17618605 -0.26618907 34
1.9146713 -0.20326747 -0.23731036 49
3.1600652 -0.33548236 -0.27845943 29
119.16061 -12.650461 -6.3809147 -1
40.89381 -4.3414145 -0.72477955 152
27.849705 -2.9566114 7.4881592 157
116.28039 -12.344688 26.95331 -1
25.087456 -2.6633625 4.9006209 83
26.844273 -2.8498716 4.2652245 136
31.180861 -3.3102574 3.8372111 82
23.765398 -2.5230088 2.088155 30
24.904896 -2.6439815 1.3273605 32
26.447365 -2.8077347 0.46209875 27
0.1 0.1 0.1 -1
0.1 0.1 0.1 -1
1.3561883 -0.14828724 -0.26620319 48
1.6884671 -0.18461901 -0.27091432 65
1.9534876 -0.21359666 -0.24220335 47
3.188704 -0.34865668 -0.28107819 43
3.3949277 -0.37120545 -0.18185607 1
40.870029 -4.4687777 -0.72460335 155
27.955519 -3.0566897 7.5191555 225
116.24103 -12.709932 26.95331 -1
25.04969 -2.7389629 4.8949003 32
26.903919 -2.9417067 4.2761493 79
25.092148 -2.7436051 3.0889609 143
23.836578 -2.6063199 2.0951185 37
24.876614 -2.7200384 1.3263019 29
26.408596 -2.8875473 0.46157759 52
0.1 0.1 0.1 -1
0.1 0.1 0.1 -1
0.1 0.1 0.1 -1
1.6780655 -0.18881837 -0.26933923 69
1.9626696 -0.22084242 -0.24342661 36
3.1776936 -0.35755867 -0.28020528 44
3.3242822 -0.37405303 -0.17813388 10
40.87566 -4.5993886 -0.72495574 42
115.20074 -12.962553 30.996174 -1
27.403957 -3.0835328 6.3564887 140
25.187284 -2.8341098 4.9235029 54
26.884729 -3.0251086 4.2745886 19
25.014359 -2.8146517 3.0804582 1
23.729277 -2.6700525 2.0864143 132
24.887793 -2.8004103 1.3273605 62
26.429201 -2.9738519 0.46209875 32
0.1 0.1 0.1 -1
0.1 0.1 0.1 -1
1.3747295 -0.15906164 -0.27003345 59
1.6970836 -0.19635926 -0.2724894 76
1.9816844 -0.22928871 -0.24587311 38
2.9093678 -0.33662534 -0.25663659 88
3.2338138 -0.374165 -0.17334819 25
119.18623 -13.790317 -2.1146011 -1
26.294739 -3.0424051 7.0774598 225
27.268295 -3.1550496 6.3272896 74
117.01746 -13.539382 22.882277 -1
26.865282 -3.1084192 4.2730279 134
25.034973 -2.8966451 3.0841022 34
24.27495 -2.8087075 2.1351583 28
119.03767 -13.773128 6.351007 -1
26.429661 -3.0580161 0.46227247 35
0.1 0.1 0.1 -1
0.1 0.1 0.1 -1
0.1 0.1 0.1 -1
1.6866871 -0.20022961 -0.27091432 71
1.990851 -0.23633745 -0.24709636 34
2.7698631 -0.32881534 -0.2444158 21
2.8757052 -0.34138006 -0.15420544 23
3.2864103 -0.39013559 -0.058327749 1
22.755268 -2.7013183 6.1269107 179
116.11848 -13.784631 26.95331 -1
23.746284 -2.8189635 4.645102 20
26.237999 -3.1147592 4.1747074 125
25.795094 -3.0621812 3.1788483 45
24.424789 -2.8995101 2.149085 15
118.99628 -14.126259 6.351007 -1
26.50983 -3.1470287 0.46383595 82
0.1 0.1 0.1 -1
0.1 0.1 0.1 -1
1.4127334 -0.17196032 -0.27769399 119
1.7350998 -0.21119931 -0.27878973 73
2.0196977 -0.24584106 -0.2507661 50
2.6798756 -0.32619905 -0.23655958 78
2.7458148 -0.33422527 -0.14729278 35
3.225687 -0.39263615 -0.057270449 9
22.718384 -2.7653205 6.1191616 214
116.07708 -14.129101 26.95331 -1
23.776794 -2.8941522 4.6527295 56
117.66119 -14.321922 18.727659 -1
118.23872 -14.39222 14.576301 -1
24.475414 -2.9791894 2.1543076 126
27.131388 -3.302479 1.4485588 44
26.579777 -3.2353361 0.46522573 131
0.1 0.1 0.1 -1
0.1 0.1 0.1 -1
1.4316334 -0.17908065 -0.28152424 128
1.7147923 -0.21450052 -0.27563956 150
2.4226456 -0.30304471 -0.30091932 22
2.5403922 -0.31777343 -0.2243388 37
2.6257877 -0.32845542 -0.14091188 34
3.2442095 -0.4058128 -0.05762288 65
22.718676 -2.8418412 6.1217446 137
22.925512 -2.8677142 5.3255248 158
23.9911 -3.0010071 4.6965871 30
28.256536 -3.5345633 4.4993205 64
118.19035 -14.784234 14.576301 -1
24.228159 -3.0306604 2.1334174 75
27.080652 -3.3874738 1.4464419 43
40.746258 -5.0968819 0.71347356 39
0.1 0.1 0.1 -1
0.1 0.1 0.1 -1
1.4407989 -0.1848262 -0.28343937 127
1.7532896 -0.2249126 -0.28193989 61
2.4118373 -0.30939135 -0.29969609 39
2.4306917 -0.31181002 -0.21473674 14
2.6049335 -0.33416179 -0.13984838 40
3.2131672 -0.41218621 -0.057094231 31
22.575485 -2.8959913 6.0855823 116
22.897058 -2.937243 5.3210325 166
116.84071 -14.988367 22.882277 -1
117.56625 -15.081441 18.727659 -1
25.48942 -3.2697918 3.1448369 38
24.267925 -3.1130979 2.1377695 20
118.85786 -15.247128 6.351007 -1
28.512024 -3.6575325 0.49944884 61
0.1 0.1 0.1 -1
0.1 0.1 0.1 -1
1.449909 -0.19088414 -0.2853545 127
1.7231619 -0.22685859 -0.27721465 226
2.3123982 -0.30443299 -0.28746358 19
2.3703849 -0.31206709 -0.20949927 40
2.6137114 -0.34410164 -0.14038013 30
118.95491 -15.660711 -2.1146011 -1
22.527445 -2.9657946 6.0752501 96
22.935499 -3.0195158 5.332263 70
23.854431 -3.1404953 4.6737051 25
117.5156 -15.471222 18.727659 -1
25.635895 -3.3750296 3.1642718 34
24.435251 -3.2169619 2.1534371 60
28.236378 -3.7173898 1.5094227 39
28.658346 -3.7729428 0.50222838 84
0.1 0.1 0.1 -1
0.1 0.1 0.1 -1
1.4784827 -0.19937322 -0.29109991 113
1.790947 -0.24150898 -0.28824022 71
2.2425792 -0.30241153 -0.27890083 35
2.3002853 -0.31019321 -0.20338887 17
2.6126175 -0.35231113 -0.14038013 25
118.90512 -16.034342 -2.1146011 -1
22.585035 -3.0455892 6.0933313 141
23.331497 -3.1462493 5.4265995 148
116.74148 -15.742574 22.882277 -1
26.390787 -3.5587945 4.2074809 6
25.723534 -3.4688153 3.1764188 60
25.135857 -3.3895671 2.2161078 20
28.184975 -3.8007402 1.5073056 112
118.90564 -16.03441 2.084656 -1
0.1 0.1 0.1 -1
0.1 0.1 0.1 -1
1.5264626 -0.21072809 -0.30067554 56
2.073869 -0.28629753 -0.33391765 144
2.1727965 -0.29995447 -0.27033809 24
2.230222 -0.30788204 -0.19727847 34
2.6016057 -0.35915157 -0.13984838 45
40.875927 -5.64292 -0.72724658 54
22.613634 -3.1218114 6.1036634 134
23.427679 -3.2341902 5.4513068 90
116.69144 -16.109249 22.882277 -1
117.41607 -16.209284 18.727659 -1
27.374235 -3.7790122 3.3817017 26
25.825745 -3.565243 2.2779083 95
28.707073 -3.9630103 1.5358852 96
29.188728 -4.0295029 0.51195675 32
0.1 0.1 0.1 -1
0.1 0.1 0.1 -1
1.4869193 -0.21003155 -0.29301503 94
2.0729594 -0.29281136 -0.33391765 30
2.1128793 -0.29845017 -0.26299861 28
2.1404686 -0.30234721 -0.18942225 31
2.5905769 -0.36592633 -0.13931665 42
40.8778 -5.7741046 -0.72759902 97
22.57502 -3.1887853 6.0959144 103
23.44635 -3.3118632 5.458045 154
116.64026 -16.475767 22.882277 -1
117.36457 -16.578077 18.727659 -1
24.49234 -3.4596121 3.0270116 43
118.36951 -16.720028 10.445127 -1
28.200089 -3.9833422 1.5094227 52
29.047224 -4.1030025 0.50969839 99
0.1 0.1 0.1 -1
0.1 0.1 0.1 -1
1.5251083 -0.22031492 -0.30067554 1
2.013387 -0.29085091 -0.32446715 73
2.0333478 -0.29373446 -0.2532126 30
2.0902107 -0.30194876 -0.18505768 24
2.6091812 -0.37691846 -0.14038013 39
40.859455 -5.9024973 -0.72759902 97
25.729712 -3.7168763 6.950892 198
23.561207 -3.4036174 5.4872446 118
25.319012 -3.6575472 4.9692678 43
26.649355 -3.8497267 4.2543001 37
24.658182 -3.5620847 3.048876 67
24.728127 -3.5721889 2.1830318 20
28.157785 -4.0676327 1.5078349 70
28.994606 -4.1885185 0.50900352 132
0.1 0.1 0.1 -1
0.1 0.1 0.1 -1
0.1 0.1 0.1 -1
1.9733863 -0.29140434 -0.31816682 10
1.9931413 -0.29432151 -0.24831961 29
2.030122 -0.29978234 -0.17982021 31
2.6178627 -0.38657236 -0.14091188 37
40.830822 -6.0293713 -0.72742277 1
22.640551 -3.3432658 6.1191616 179
23.473278 -3.4662321 5.469276 117
116.53444 -17.208309 22.882277 -1
26.490557 -3.9117851 4.2308908 33
24.686148 -3.6453331 3.053735 25
24.766058 -3.6571333 2.1873839 108
28.866024 -4.2625637 1.5464702 43
118.69476 -17.527319 2.084656 -1
0.1 0.1 0.1 -1
0.1 0.1 0.1 -1
1.6110395 -0.24307163 -0.31791171 70
1.9236377 -0.29023606 -0.31029138 85
1.9235101 -0.2902168 -0.23975687 33
1.9602178 -0.29575521 -0.17370981 33
2.6265094 -0.39628446 -0.14144361 33
40.673267 -6.1367316 -0.72495574 107
22.849644 -3.4475257 6.1785707 143
115.62516 -17.445379 26.95331 -1
24.188972 -3.6496019 4.7518859 35
117.20312 -17.68346 18.727659 -1
24.615685 -3.7139835 3.0464468 53
118.20667 -17.834875 10.445127 -1
28.941359 -4.3666363 1.5512334 29
118.63911 -17.900122 2.084656 -1
0.1 0.1 0.1 -1
0.1 0.1 0.1 -1
1.8527782 -0.28550088 -0.36579001 28
1.8836765 -0.2902621 -0.30399105 38
1.8441157 -0.28416607 -0.22997087 27
1.9100509 -0.29432622 -0.16934524 33
2.6449904 -0.40757555 -0.14250709 35
40.643906 -6.2629571 -0.72477955 21
23.106043 -3.5604887 6.250895 136
24.414118 -3.7620542 5.6938868 88
24.18709 -3.7270708 4.7537928 48
26.680225 -4.1112466 4.2652245 15
24.495983 -3.7746692 3.0330851 19
118.15005 -18.206142 10.445127 -1
28.966976 -4.4636197 1.5533504 39
118.5823 -18.272749 2.084656 -1
0.1 0.1 0.1 -1
0.1 0.1 0.1 -1
1.8712634 -0.29437059 -0.36962026 56
1.8339794 -0.28850541 -0.29611564 28
1.8334097 -0.28841579 -0.22874762 22
1.8697536 -0.29413307 -0.16585359 32
2.7226131 -0.4282974 -0.14676104 23
40.624027 -6.3906126 -0.72477955 39
23.104286 -3.634562 6.2534781 128
24.267412 -3.8175344 5.6624413 112
24.039499 -3.7816813 4.727097 56
25.798763 -4.0584331 4.126328 49
24.523224 -3.8577766 3.0379438 60
26.708536 -4.2015505 2.3623397 13
28.942945 -4.5530481 1.5528212 138
40.693344 -6.4015169 0.71573192 17
0.1 0.1 0.1 -1
0.1 0.1 0.1 -1
1.8509477 -0.29713652 -0.36579001 20
1.833064 -0.29426557 -0.29611564 25
1.8128957 -0.29102793 -0.22630112 30
1.8294767 -0.29368973 -0.16236193 18
3.1747966 -0.50965673 -0.17122121 19
40.623497 -6.5213747 -0.72513199 27
23.083216 -3.7055969 6.250895 142
24.264921 -3.8952985 5.6646872 128
24.056578 -3.8618526 4.7328176 44
25.698112 -4.1253715 4.1122823 55
24.569788 -3.9442394 3.0452321 26
26.626352 -4.274384 2.3562467 95
118.31697 -18.99367 6.351007 -1
40.673035 -6.5293269 0.71573192 129
0.1 0.1 0.1 -1
0.1 0.1 0.1 -1
1.8403193 -0.30136383 -0.36387488 57
1.8223851 -0.29842699 -0.29454055 19
1.8119724 -0.29672185 -0.22630112 23
1.828545 -0.29943573 -0.16236193 18
3.2815804 -0.53737938 -0.17707039 1
40.612675 -6.6505804 -0.72530818 27
114.40394 -18.734364 30.996174 -1
24.23333 -3.9683602 5.6601949 140
24.092764 -3.9453413 4.7423515 47
25.587549 -4.1901217 4.0966759 57
24.67482 -4.040657 3.0598085 29
117.97322 -19.318855 10.445127 -1
38.256046 -6.264668 2.0545506 75
118.40482 -19.389532 2.084656 -1
0.1 0.1 0.1 -1
0.1 0.1 0.1 -1
1.8103209 -0.30229422 -0.35812947 38
1.8116982 -0.30252424 -0.29296547 44
1.8208206 -0.30404752 -0.22752437 25
1.8177695 -0.30353802 -0.16148902 40
118.19373 -19.736437 -6.3809147 -1
40.60144 -6.7797828 -0.72548443 2
25.289196 -4.2228856 6.8553205 171
23.951624 -3.9995329 5.5973039 124
116.18938 -19.401745 22.882277 -1
25.545031 -4.2656059 4.0919938 53
24.485777 -4.088728 3.0379438 27
27.453833 -4.5843449 2.4319739 28
28.091082 -4.6907554 1.5094227 129
118.34332 -19.761415 2.084656 -1
0.1 0.1 0.1 -1
0.1 0.1 0.1 -1
1.7222806 -0.29315746 -0.3408933 54
1.762063 -0.29992902 -0.28509006 61
1.7807198 -0.30310467 -0.22263137 36
1.8069863 -0.30757561 -0.1606161 24
3.2781391 -0.55798745 -0.17707039 15
40.609512 -6.9123354 -0.72601306 9
25.294851 -4.3055553 6.8604865 197
24.025398 -4.0894756 5.6175189 139
25.741676 -4.3816113 5.072238 27
26.193647 -4.4585438 4.1981173 39
24.600019 -4.1872845 3.053735 38
117.84951 -20.059717 10.445127 -1
28.115583 -4.7856855 1.5115397 1
39.870438 -6.7865338 0.70270282 81
0.1 0.1 0.1 -1
0.1 0.1 0.1 -1
1.6149755 -0.28011596 -0.31982687 35
1.6540833 -0.28689915 -0.26776415 43
1.6917487 -0.29343218 -0.21162213 39
1.7863806 -0.30984601 -0.15887028 49
3.2862089 -0.5699898 -0.17760213 13
40.597446 -7.0415883 -0.72618926 11
114.22229 -19.811747 30.996174 -1
23.858814 -4.1382885 5.5815811 179
25.747128 -4.4658146 5.0760517 54
116.78593 -20.256407 18.727659 -1
25.232218 -4.3765039 3.1339045 35
117.78591 -20.429853 10.445127 -1
28.10041 -4.8739891 1.5115397 65
118.21682 -20.504593 2.084656 -1
0.1 0.1 0.1 -1
0.1 0.1 0.1 -1
1.5754267 -0.2783573 -0.31216633 67
1.604551 -0.28350317 -0.25988874 26
1.6224039 -0.28665754 -0.20305939 47
1.7559687 -0.31025672 -0.15625153 30
3.2745686 -0.57857341 -0.17707039 14
40.594818 -7.1725736 -0.7265417 17
114.15948 -20.170488 30.996174 -1
23.845695 -4.2132225 5.5815811 225
116.00137 -20.495926 22.882277 -1
25.163256 -4.4460182 4.0373716 36
25.276993 -4.466114 3.1411927 36
28.949593 -5.1150141 2.5686309 23
38.046467 -6.7223129 2.0476706 143
118.15182 -20.875881 2.084656 -1
0.1 0.1 0.1 -1
0.1 0.1 0.1 -1
1.5455651 -0.27809107 -0.30642095 38
1.5647759 -0.28154764 -0.25358841 49
1.5531189 -0.27945021 -0.19449663 41
1.7059635 -0.30695128 -0.15188697 44
3.2727346 -0.58885789 -0.17707039 14
40.591766 -7.3036113 -0.72689414 25
23.075827 -4.1519966 6.2689762 191
24.503675 -4.4089069 5.7388086 63
25.254814 -4.5440583 4.9845223 35
24.711702 -4.4463372 3.9671426 52
25.311682 -4.5542903 3.1472661 53
28.835333 -5.1882954 2.5599267 97
37.848255 -6.8099756 2.0381439 122
118.08565 -21.246962 2.084656 -1
0.1 0.1 0.1 -1
0.1 0.1 0.1 -1
1.5157211 -0.27763999 -0.30067554 79
1.5153159 -0.27756578 -0.24571298 32
1.5131835 -0.27717519 -0.18960364 46
1.6755943 -0.30692455 -0.14926822 44
3.2905135 -0.60273498 -0.17813388 14
39.152405 -7.1716847 -0.70151895 12
114.0305 -20.887371 30.996174 -1
24.575968 -4.5016675 5.7590237 143
25.221104 -4.6198387 4.9807086 36
24.619886 -4.5097117 3.9546576 43
26.000221 -4.7625527 3.234724 50
29.23045 -5.3542452 2.5964847 50
38.140995 -6.9864211 2.0550799 102
40.65731 -7.4473438 0.71816403 57
0.1 0.1 0.1 -1
0.1 0.1 0.1 -1
1.495544 -0.27880293 -0.29684529 35
1.4950206 -0.27870536 -0.24256282 68
1.4927917 -0.27828985 -0.18715714 49
1.6550356 -0.30853575 -0.1475224 52
3.2787869 -0.61123943 -0.17760213 15
39.041222 -7.2781591 -0.69993299 15
113.96432 -21.245504 30.996174 -1
27.061941 -5.0449529 6.3452582 210
25.331919 -4.7224374 5.0054979 44
24.518206 -4.5707431 3.9406118 26
25.9461 -4.836935 3.2298653 27
29.282038 -5.4588284 2.6025777 64
117.80229 -21.960989 6.351007 -1
40.623886 -7.5732031 0.71799028 157
0.1 0.1 0.1 -1
0.1 0.1 0.1 -1
1.4657317 -0.27801284 -0.29109991 126
1.465031 -0.27787992 -0.23783757 27
1.4626569 -0.27742961 -0.1834874 47
1.6246961 -0.30816442 -0.14490366 47
3.2768505 -0.62153697 -0.17760213 14
40.589893 -7.6988921 -0.72812766 12
26.965117 -5.1146116 7.3383441 162
25.983267 -4.9283791 6.0959401 79
24.37179 -4.6227221 4.8186259 36
24.503725 -4.6477466 3.9406118 93
25.969786 -4.9258218 3.234724 52
38.093105 -7.2253141 3.3877032 16
40.676655 -7.7153487 2.194273 76
117.88016 -22.358932 2.084656 -1
0.1 0.1 0.1 -1
0.1 0.1 0.1 -1
1.4359397 -0.27703825 -0.2853545 38
1.4350618 -0.27686888 -0.23311232 79
1.4422877 -0.278263 -0.1810409 54
1.62372 -0.31326702 -0.14490366 51
3.2846868 -0.63372016 -0.17813388 16
40.575321 -7.8282652 -0.72830391 10
113.82858 -21.96114 30.996174 -1
25.728455 -4.9638343 6.0397873 197
24.328232 -4.6936865 4.8129053 34
24.556892 -4.7378025 3.9515362 60
26.392761 -5.092 3.2893851 28
38.246288 -7.378921 3.4033709 40
40.505138 -7.8147244 2.1863341 146
37.375011 -7.210824 0.6613571 40
0.1 0.1 0.1 -1
0.1 0.1 0.1 -1
1.3869532 -0.27185804 -0.27577886 126
1.4245431 -0.27922606 -0.23153724 26
1.412237 -0.27681392 -0.17737114 53
1.6227834 -0.31808332 -0.14490366 49
3.2729926 -0.64154243 -0.17760213 13
40.561729 -7.9505429 -0.7284801 21
26.12755 -5.1212859 7.1187882 138
25.790113 -5.0551448 6.0577564 225
24.343098 -4.7715139 4.8186259 127
24.707508 -4.8429422 3.9780672 25
26.474943 -5.1893787 3.301532 65
38.409969 -7.5287752 3.419909 26
37.453724 -7.3413401 2.0227957 86
37.530064 -7.3563037 0.66448408 131
0.1 0.1 0.1 -1
0.1 0.1 0.1 -1
1.3957665 -0.27788848 -0.27769399 39
1.375283 -0.27381033 -0.22366181 83
1.3724741 -0.27325109 -0.17247815 48
1.6120625 -0.32095164 -0.14403075 47
3.2808683 -0.65320057 -0.17813388 16
40.557571 -8.0747614 -0.72883254 22
26.121716 -5.2006717 7.1213713 151
25.8419 -5.1449623 6.0734792 68
115.53067 -23.001442 22.882277 -1
24.58647 -4.8950138 3.9609001 38
116.81867 -23.257875 14.576301 -1
38.700111 -7.7049532 3.4477625 54
37.510128 -7.4680343 2.0270298 96
40.655807 -8.0943203 0.72024864 99
0.1 0.1 0.1 -1
0.1 0.1 0.1 -1
1.3466918 -0.27300861 -0.26811832 129
1.3743188 -0.27860931 -0.22366181 26
1.3617848 -0.27606836 -0.1712549 53
1.6206955 -0.32855609 -0.14490366 48
117.44125 -23.808321 -6.3809147 -1
117.58938 -23.83835 -2.1146011 -1
26.860846 -5.445375 7.3280125 158
25.546827 -5.1789899 6.0083418 137
115.44968 -23.404577 22.882277 -1
24.617636 -4.9906197 3.9687033 108
116.73678 -23.665506 14.576301 -1
48.504765 -9.8331461 4.3242831 52
37.532764 -7.6088438 2.029676 130
117.58989 -23.838455 2.084656 -1
0.1 0.1 0.1 -1
0.1 0.1 0.1 -1
1.3554405 -0.27921829 -0.27003345 39
1.3540926 -0.27894059 -0.22051165 81
1.3317485 -0.27433774 -0.16758515 62
1.6294123 -0.33565596 -0.14577657 46
3.276464 -0.67494559 -0.17813388 1
40.561882 -8.3556738 -0.72988981 23
26.550285 -5.4693103 7.2479386 136
25.48271 -5.249392 5.9971113 85
115.37558 -23.767159 22.882277 -1
24.708254 -5.0898552 3.9858704 112
116.66186 -24.032129 14.576301 -1
48.483391 -9.9874897 4.3251534 52
117.36743 -24.177477 6.351007 -1
117.51442 -24.207756 2.084656 -1
0.1 0.1 0.1 -1
0.1 0.1 0.1 -1
0.1 0.1 0.1 -1
1.3242606 -0.27689368 -0.2157864 24
1.311499 -0.27422532 -0.16513866 61
1.6284091 -0.34048903 -0.14577657 50
117.29362 -24.52528 -6.3809147 -1
40.556488 -8.4800787 -0.73024225 12
26.987835 -5.6429687 7.3719234 199
114.45853 -23.932482 26.95331 -1
24.896173 -5.205617 4.9406648 1
25.0121 -5.229856 4.0373716 135
116.59003 -24.378164 14.576301 -1
48.453545 -10.131299 4.3251534 72
38.638988 -8.0791435 2.0921276 132
28.254606 -5.9078417 0.50153351 148
0.1 0.1 0.1 -1
0.1 0.1 0.1 -1
1.3153553 -0.27910754 -0.26237294 41
1.2944529 -0.27467224 -0.21106115 94
1.3009709 -0.27605528 -0.16391541 64
1.6468815 -0.34945467 -0.1475224 52
117.22034 -24.87319 -6.3809147 -1
40.550709 -8.6045256 -0.73059469 19
26.819769 -5.6909337 7.3305955 154
25.222338 -5.3519721 5.9432049 58
24.794195 -5.2611237 4.9235029 43
25.112421 -5.3286486 4.0560989 19
116.51719 -24.723988 14.576301 -1
48.433014 -10.277086 4.3260236 122
117.22189 -24.87352 6.351007 -1
28.236954 -5.9916487 0.50153351 1
0.1 0.1 0.1 -1
0.1 0.1 0.1 -1
0.1 0.1 0.1 -1
1.2838817 -0.27688146 -0.20948607 23
1.2709427 -0.27409106 -0.16024566 67
1.6359756 -0.35281393 -0.14664948 60
1.3177936 -0.28419492 -0.071785294 79
40.5415 -8.743165 -0.73094714 61
26.791307 -5.7778034 7.3280125 157
25.1854 -5.4314742 5.9387126 156
24.767015 -5.3412457 4.9215961 131
115.86585 -24.987587 18.727659 -1
116.43456 -25.110235 14.576301 -1
37.47245 -8.081295 3.3494043 181
117.13877 -25.262104 6.351007 -1
28.089869 -6.0578513 0.49927512 170
0.1 0.1 0.1 -1
0.1 0.1 0.1 -1
1.2751744 -0.27919888 -0.2547124 43
1.2637122 -0.27668926 -0.2063359 97
1.2603801 -0.2759597 -0.15902241 65
1.6445905 -0.36008239 -0.1475224 63
1.28763 -0.28192607 -0.070190065 78
40.533367 -8.8747635 -0.73129958 87
26.791897 -5.866075 7.333178 150
114.22789 -25.010149 26.95331 -1
24.798061 -5.4295249 4.9311304 97
115.78678 -25.351467 18.727659 -1
116.3551 -25.475901 14.576301 -1
37.232784 -8.1521025 3.3302548 166
27.508823 -6.0230455 1.4924866 1
28.041399 -6.1396527 0.49875396 116
0.1 0.1 0.1 -1
0.1 0.1 0.1 -1
0.1 0.1 0.1 -1
1.2435567 -0.27637312 -0.20318574 24
1.2595069 -0.27991796 -0.15902241 66
1.6531757 -0.36740848 -0.14839531 63
1.2769899 -0.28380343 -0.069658324 91
40.534565 -9.0085669 -0.73182821 89
113.16662 -25.15061 30.996174 -1
114.14876 -25.368883 26.95331 -1
28.058167 -6.2357607 5.5832753 47
115.70657 -25.715096 18.727659 -1
116.27449 -25.841316 14.576301 -1
116.6973 -25.935282 10.445127 -1
116.97773 -25.997606 6.351007 -1
28.285501 -6.2862844 0.50344443 18
0.1 0.1 0.1 -1
0.1 0.1 0.1 -1
1.2350973 -0.27856773 -0.24705188 45
1.2330492 -0.2781058 -0.20161065 100
1.2489396 -0.28168976 -0.15779915 65
1.6520133 -0.37260026 -0.14839531 51
1.2663509 -0.28561676 -0.069126576 85
40.535324 -9.1424646 -0.73235685 120
113.08705 -25.506008 30.996174 -1
28.355526 -6.3953943 6.7001433 127
28.162926 -6.3519545 5.6080647 114
115.62521 -26.078472 18.727659 -1
116.19273 -26.206474 14.576301 -1
116.61525 -26.301769 10.445127 -1
27.246387 -6.145236 1.4803139 34
27.865719 -6.2849216 0.49632186 129
0.1 0.1 0.1 -1
0.1 0.1 0.1 -1
0.1 0.1 0.1 -1
1.2032905 -0.27536929 -0.19688541 32
1.228699 -0.28118393 -0.15535267 51
1.6411238 -0.37556607 -0.1475224 84
1.245979 -0.2851384 -0.068063095 86
40.691586 -9.3121433 -0.73570496 174
113.00636 -25.861155 30.996174 -1
28.373291 -6.4931393 6.7091279 91
114.82964 -26.278406 22.882277 -1
115.54271 -26.441589 18.727659 -1
116.10983 -26.571375 14.576301 -1
26.870348 -6.1491957 2.4084723 140
27.353495 -6.2597623 1.4871942 44
116.95837 -26.765558 2.084656 -1
0.1 0.1 0.1 -1
0.1 0.1 0.1 -1
1.2046407 -0.27966386 -0.2413065 47
1.1928 -0.27691498 -0.19531032 97
1.2471452 -0.28953147 -0.15779915 65
1.6496396 -0.38297275 -0.14839531 52
1.2353498 -0.28679314 -0.067531347 83
116.87319 -27.132742 -2.1146011 -1
112.92456 -26.216047 30.996174 -1
113.90459 -26.443567 26.95331 -1
27.931215 -6.4843826 5.5699272 115
115.45907 -26.804447 18.727659 -1
116.02579 -26.936012 14.576301 -1
26.870304 -6.2380862 2.4102132 138
27.23642 -6.323082 1.4819016 33
27.699068 -6.4304881 0.49406347 35
0.1 0.1 0.1 -1
0.1 0.1 0.1 -1
0.1 0.1 0.1 -1
1.1823119 -0.2783975 -0.19373524 28
1.226908 -0.28889847 -0.15535267 56
1.6484283 -0.38815334 -0.14839531 64
1.2247227 -0.28838393 -0.066999607 84
38.685818 -9.1093006 -0.70046163 58
112.84164 -26.570679 30.996174 -1
113.82096 -26.801277 26.95331 -1
27.929817 -6.5765986 5.573741 61
115.37429 -27.16704 18.727659 -1
115.94059 -27.300385 14.576301 -1
26.80209 -6.3110542 2.4058611 131
27.119221 -6.3857288 1.4766091 38
27.698193 -6.522059 0.49441093 18
0.1 0.1 0.1 -1
0.1 0.1 0.1 -1
1.1551273 -0.27582937 -0.23173083 53
1.1622212 -0.27752331 -0.19058506 96
1.2259943 -0.29275149 -0.15535267 58
1.6568902 -0.3956438 -0.14926822 65
1.2238107 -0.29223007 -0.066999607 97
27.910847 -6.6647472 -0.50574213 49
112.75761 -26.925051 30.996174 -1
113.7362 -27.158724 26.95331 -1
114.57688 -27.359468 22.882277 -1
115.28838 -27.529364 18.727659 -1
115.85425 -27.664488 14.576301 -1
26.704615 -6.3767142 2.3988976 73
27.167015 -6.4871297 1.4803139 46
27.98877 -6.6833539 0.49997002 130
0.1 0.1 0.1 -1
0.1 0.1 0.1 -1
1.0874799 -0.26328999 -0.21832491 127
1.1613436 -0.28117314 -0.19058506 40
1.2347147 -0.29893705 -0.1565759 61
1.6653211 -0.40319127 -0.15014113 64
1.2131811 -0.29372355 -0.066467866 88
116.61228 -28.233025 -2.1146011 -1
112.67247 -27.279156 30.996174 -1
113.65031 -27.515902 26.95331 -1
114.49036 -27.719286 22.882277 -1
115.20132 -27.891417 18.727659 -1
115.76677 -28.028318 14.576301 -1
26.761908 -6.479331 2.4058611 141
26.884451 -6.5090003 1.4660242 40
27.928764 -6.7618389 0.49927512 22
0.1 0.1 0.1 -1
0.1 0.1 0.1 -1
1.1343074 -0.27840272 -0.22790058 57
1.150864 -0.28246635 -0.18900998 108
1.2048531 -0.29571733 -0.15290616 66
1.6253475 -0.39892286 -0.14664948 51
1.2025543 -0.29515314 -0.065936118 87
28.344223 -6.9567637 -0.51437676 101
112.58621 -27.632992 30.996174 -1
113.56331 -27.872808 26.95331 -1
114.40271 -28.078831 22.882277 -1
115.11313 -28.253193 18.727659 -1
115.67815 -28.39187 14.576301 -1
26.770445 -6.570498 2.4084723 83
26.825077 -6.5839067 1.4639071 40
28.606524 -7.0211425 0.51178306 140
0.1 0.1 0.1 -1
0.1 0.1 0.1 -1
0.1 0.1 0.1 -1
1.1212217 -0.27892849 -0.18428473 34
1.2039181 -0.29950103 -0.15290616 60
1.6434206 -0.4088369 -0.14839531 44
1.2016212 -0.29892963 -0.065936118 96
28.390146 -7.0626717 -0.51561028 133
112.49885 -27.986555 30.996174 -1
113.47519 -28.229441 26.95331 -1
114.31393 -28.438099 22.882277 -1
115.0238 -28.614693 18.727659 -1
115.58838 -28.755144 14.576301 -1
116.00869 -28.859707 10.445127 -1
27.831467 -6.9236875 1.5200076 46
28.739571 -7.1495981 0.51456261 31
0.1 0.1 0.1 -1
0.1 0.1 0.1 -1
1.1039845 -0.27832615 -0.22215518 64
1.1107643 -0.28003541 -0.18270965 124
1.212595 -0.30570802 -0.15412942 62
1.6421281 -0.41399783 -0.14839531 111
1.1909933 -0.300262 -0.065404378 102
116.34102 -29.330799 -2.1146011 -1
112.41037 -28.339842 30.996174 -1
113.38594 -28.585794 26.95331 -1
114.22403 -28.797085 22.882277 -1
114.93333 -28.975908 18.727659 -1
115.49747 -29.118134 14.576301 -1
28.544674 -7.1964135 2.5721128 65
37.318283 -9.4083338 2.0397317 137
28.687881 -7.2325182 0.51404142 27
0.1 0.1 0.1 -1
0.1 0.1 0.1 -1
1.0365379 -0.26478827 -0.20874926 142
1.0907432 -0.27863526 -0.17955948 45
1.2116287 -0.30951598 -0.15412942 56
1.6504712 -0.42162031 -0.14926822 56
1.1900442 -0.30400211 -0.065404378 96
116.2483 -29.69615 -2.1146011 -1
112.32078 -28.692848 30.996174 -1
113.29558 -28.941864 26.95331 -1
114.133 -29.155788 22.882277 -1
114.84174 -29.336838 18.727659 -1
115.40543 -29.480835 14.576301 -1
28.357838 -7.2441373 2.5573153 121
27.884167 -7.123136 1.5253001 56
116.24881 -29.69628 2.084656 -1
0.1 0.1 0.1 -1
0.1 0.1 0.1 -1
1.0832102 -0.28033891 -0.21832491 64
1.0707421 -0.27711213 -0.17640932 119
1.2106503 -0.3133209 -0.15412942 58
1.6587826 -0.42929924 -0.15014113 60
1.1987505 -0.31024119 -0.065936118 110
28.099693 -7.2723074 -0.51155728 96
112.23009 -29.045572 30.996174 -1
113.20409 -29.297649 26.95331 -1
114.04084 -29.514202 22.882277 -1
114.74901 -29.697479 18.727659 -1
115.31224 -29.843245 14.576301 -1
28.286718 -7.3207102 2.5529633 141
27.697306 -7.1681676 1.5163029 66
28.041739 -7.2573085 0.50327069 31
0.1 0.1 0.1 -1
0.1 0.1 0.1 -1
0.1 0.1 0.1 -1
1.0794187 -0.28297883 -0.1779844 43
1.2192605 -0.31963956 -0.15535267 51
1.6381533 -0.42945591 -0.14839531 75
1.1881105 -0.31147334 -0.065404378 142
27.989664 -7.3377295 -0.50997132 185
112.13828 -29.39801 30.996174 -1
113.1115 -29.653145 26.95331 -1
113.94756 -29.872326 22.882277 -1
114.65514 -30.057827 18.727659 -1
115.21791 -30.205362 14.576301 -1
26.789211 -7.0230207 2.4197879 84
27.529755 -7.2171607 1.5083642 50
27.815695 -7.2921224 0.49962255 29
0.1 0.1 0.1 -1
0.1 0.1 0.1 -1
1.0624549 -0.28210181 -0.21449466 78
1.0498909 -0.2787658 -0.17325915 132
1.2086577 -0.32092139 -0.15412942 54
1.5501422 -0.41159195 -0.14053909 62
1.2160804 -0.32289225 -0.066999607 183
27.918156 -7.412796 -0.50909024 1
112.04537 -29.750156 30.996174 -1
113.01778 -30.008348 26.95331 -1
113.85315 -30.230156 22.882277 -1
114.56015 -30.417877 18.727659 -1
115.12245 -30.567179 14.576301 -1
26.757387 -7.1045899 2.4189174 129
28.066736 -7.4522471 1.5390607 86
27.628368 -7.3358521 0.49666929 132
0.1 0.1 0.1 -1
0.1 0.1 0.1 -1
1.004694 -0.27014688 -0.20300387 128
1.0490099 -0.28206277 -0.17325915 71
1.2172281 -0.32729405 -0.15535267 61
1.4622602 -0.39317948 -0.13268287 81
1.2247034 -0.32930404 -0.067531347 226
115.86596 -31.154587 -2.1146011 -1
111.95135 -30.102011 30.996174 -1
112.92294 -30.363256 26.95331 -1
113.75761 -30.587687 22.882277 -1
114.46402 -30.777628 18.727659 -1
115.02586 -30.928696 14.576301 -1
26.850378 -7.2196569 2.4293625 127
27.011335 -7.2629356 1.4824308 39
27.614841 -7.425209 0.49684301 55
0.1 0.1 0.1 -1
0.1 0.1 0.1 -1
1.032251 -0.28103685 -0.20874926 80
1.0481186 -0.28535691 -0.17325915 110
1.2257701 -0.33372366 -0.1565759 61
1.4033461 -0.38206986 -0.12744538 52
1.2332979 -0.33577314 -0.068063095 228
38.849648 -10.577062 -0.70962489 152
111.85624 -30.453568 30.996174 -1
112.827 -30.717863 26.95331 -1
113.66096 -30.944914 22.882277 -1
114.36677 -31.137075 18.727659 -1
114.92812 -31.289907 14.576301 -1
26.89485 -7.3222928 2.4354556 125
26.949844 -7.3372655 1.4803139 39
27.427372 -7.4672756 0.49388975 39
0.1 0.1 0.1 -1
0.1 0.1 0.1 -1
0.98405272 -0.27123806 -0.19917361 112
1.047217 -0.28864828 -0.17325915 59
1.2247157 -0.33757287 -0.1565759 50
1.4021388 -0.3864767 -0.12744538 59
115.52222 -31.841814 -6.3809147 -1
115.66792 -31.881975 -2.1146011 -1
111.76001 -30.804823 30.996174 -1
112.72994 -31.072168 26.95331 -1
113.56318 -31.301838 22.882277 -1
114.26838 -31.496214 18.727659 -1
39.491695 -10.885241 5.0130324 115
26.823694 -7.3935137 2.4311035 132
28.024136 -7.7243958 1.5406485 44
27.866451 -7.6809325 0.50222838 45
0.1 0.1 0.1 -1
0.1 0.1 0.1 -1
1.0021033 -0.27960375 -0.20300387 76
1.0272813 -0.28662884 -0.17010899 112
1.2140894 -0.33875144 -0.15535267 52
1.4297038 -0.39891151 -0.13006413 56
115.42162 -32.204578 -6.3809147 -1
38.734272 -10.807515 -0.70874381 134
111.66268 -31.155775 30.996174 -1
112.63177 -31.426165 26.95331 -1
113.46429 -31.658451 22.882277 -1
114.16887 -31.855043 18.727659 -1
39.390377 -10.990581 5.00453 171
28.709846 -8.0105324 2.6043186 145
27.913164 -7.7882442 1.5358852 72
27.890337 -7.7818751 0.503097 34
0.1 0.1 0.1 -1
0.1 0.1 0.1 -1
0.95399266 -0.26941329 -0.19342822 141
1.0358793 -0.29253855 -0.17168407 59
1.2225705 -0.34526128 -0.1565759 52
1.5051385 -0.42506018 -0.13704744 46
115.31987 -32.567028 -6.3809147 -1
38.786724 -10.953606 -0.71032977 115
111.56425 -31.506418 30.996174 -1
112.53249 -31.779852 26.95331 -1
113.36427 -32.014751 22.882277 -1
114.06823 -32.213558 18.727659 -1
39.393864 -11.125065 5.0093884 147
28.176424 -7.9571924 2.5581858 94
27.802067 -7.8514719 1.531122 33
27.702175 -7.8232617 0.50014371 94
0.1 0.1 0.1 -1
0.1 0.1 0.1 -1
0.9814527 -0.28050035 -0.19917361 115
1.0254601 -0.29307774 -0.17010899 117
1.211937 -0.34637305 -0.15535267 47
1.5516872 -0.44347408 -0.141412 52
115.21699 -32.929153 -6.3809147 -1
38.694443 -11.058918 -0.70927244 99
111.46472 -31.856752 30.996174 -1
112.43209 -32.133228 26.95331 -1
113.26313 -32.370739 22.882277 -1
113.96647 -32.571754 18.727659 -1
28.29743 -8.0874395 3.6015608 125
28.141708 -8.0429344 2.5573153 141
27.796467 -7.9442639 1.5321804 51
27.715916 -7.9212422 0.50083864 14
0.1 0.1 0.1 -1
0.1 0.1 0.1 -1
0.96175814 -0.27796093 -0.19534335 111
1.024586 -0.29611903 -0.17010899 115
1.2013693 -0.34721175 -0.15412942 56
1.569505 -0.45360789 -0.14315784 37
115.11878 -33.270866 -6.3809147 -1
39.199356 -11.329138 -0.71914059 177
111.36971 -32.187332 30.996174 -1
112.33625 -32.466679 26.95331 -1
113.16659 -32.706654 22.882277 -1
113.86932 -32.909756 18.727659 -1
28.101667 -8.1217575 3.5796964 227
28.069868 -8.1125669 2.5529633 130
115.12031 -33.271305 6.351007 -1
115.26448 -33.312973 2.084656 -1
0.1 0.1 0.1 -1
0.1 0.1 0.1 -1
0.96092916 -0.28081331 -0.19534335 99
1.0331817 -0.30192772 -0.17168407 102
1.2003338 -0.35077477 -0.15412942 63
1.5585903 -0.45546842 -0.14228491 60
1.3227249 -0.38654125 -0.073380522 227
39.23275 -11.465026 -0.72037411 126
111.27372 -32.517632 30.996174 -1
112.23943 -32.799843 26.95331 -1
113.06905 -33.042282 22.882277 -1
113.77118 -33.247467 18.727659 -1
114.32961 -33.410656 14.576301 -1
28.045675 -8.195816 2.5529633 146
28.180164 -8.2351179 1.5559967 32
40.509335 -11.838084 0.73327774 37
0.1 0.1 0.1 -1
0.1 0.1 0.1 -1
0.95058095 -0.28121403 -0.19342822 108
1.0132357 -0.2997494 -0.16853391 126
1.1896468 -0.35193777 -0.15290616 58
1.5570713 -0.46063438 -0.14228491 60
1.340587 -0.39659101 -0.074444003 227
40.623081 -12.017682 -0.74663043 149
111.16528 -32.886452 30.996174 -1
112.13004 -33.17186 26.95331 -1
112.95885 -33.417049 22.882277 -1
113.6603 -33.624561 18.727659 -1
114.21819 -33.789604 14.576301 -1
38.774788 -11.470894 3.5330644 225
27.913307 -8.2577009 1.5427655 55
40.508205 -11.983698 0.73397267 23
0.1 0.1 0.1 -1
0.1 0.1 0.1 -1
0.1 0.1 0.1 -1
1.012289 -0.3029311 -0.16853391 108
1.1980436 -0.35851881 -0.15412942 66
1.5651602 -0.46837977 -0.14315784 53
1.3297678 -0.39793777 -0.073912263 227
40.565968 -12.139511 -0.74627799 64
111.06141 -33.235523 30.996174 -1
112.02528 -33.523964 26.95331 -1
112.85331 -33.771755 22.882277 -1
113.5541 -33.981472 18.727659 -1
28.49934 -8.5285292 3.6404309 80
38.900806 -11.641205 3.5478618 131
27.485422 -8.225111 1.5205369 40
40.489517 -12.116632 0.7343201 41
0.1 0.1 0.1 -1
0.1 0.1 0.1 -1
0.1 0.1 0.1 -1
1.020784 -0.30897063 -0.17010899 114
1.187412 -0.35940555 -0.15290616 65
1.5446117 -0.46752265 -0.141412 69
1.3380687 -0.40500629 -0.074444003 226
40.403225 -12.229238 -0.7439872 117
110.95645 -33.58427 30.996174 -1
111.9194 -33.875736 26.95331 -1
112.74666 -34.126129 22.882277 -1
113.44678 -34.338043 18.727659 -1
28.434404 -8.6065178 3.6355722 37
38.787762 -11.74027 3.5408983 107
27.335196 -8.2738094 1.5136566 47
40.479961 -12.252463 0.73484123 42
0.1 0.1 0.1 -1
0.1 0.1 0.1 -1
0.1 0.1 0.1 -1
1.0103657 -0.30928549 -0.16853391 119
1.1767869 -0.36022907 -0.15168291 61
1.5240842 -0.46654111 -0.13966618 53
1.3558868 -0.41505378 -0.075507492 225
40.412411 -12.37074 -0.74486828 144
