# .PCD v0.7 - Point Cloud Data file format
VERSION 0.7
FIELDS x y z intensity
SIZE 4 4 4 4
TYPE F F F F
COUNT 1 1 1 1
WIDTH 1534
HEIGHT 1
VIEWPOINT 0 0 0 1 0 0 0
POINTS 1534
DATA ascii
4.6128826 2.7706037 1.4387391 5
4.6278558 2.779597 1.2443445 12
4.6199861 2.7748704 1.0468642 4
4.6063375 2.7666726 0.84898728 4
4.5864015 2.7546988 0.65471882 4
4.1504569 2.4928603 0.42302766 2
4.1261888 2.4782841 0.25509879 18
3.2570858 1.9562809 0.066014111 7
3.2103302 1.9145005 -1.0026801 8
3.2215436 1.9211875 -0.86786854 14
3.2285862 1.9253874 -0.73349512 5
3.2314508 1.9270958 -0.60010672 5
3.2221494 1.9215488 -0.46238825 5
3.2512498 1.9389031 -0.33170718 5
3.2419374 1.9333496 -0.20099881 3
3.2374392 1.9306669 -0.06643372 5
4.6215639 2.7560983 1.4387391 6
4.6365652 2.7650445 1.2443445 6
4.6118183 2.7502866 1.0430504 4
4.5386553 2.7066553 0.83494151 7
4.1602526 2.4809926 0.59276956 2
4.1497121 2.4747066 0.42215726 2
3.2591338 1.9436047 0.20111522 12
3.2632155 1.9460388 0.066014111 5
3.1993766 1.8951221 -0.99749827 8
3.2272296 1.9116206 -0.86786854 11
3.2258401 1.9107975 -0.73158002 4
3.2201614 1.9074337 -0.59695655 5
3.2278366 1.9119802 -0.46238825 5
3.2398462 1.919094 -0.32996136 5
3.2476597 1.923722 -0.20099881 3
3.2431533 1.9210528 -0.06643372 3
4.6214089 2.7374504 1.436156 5
4.6195965 2.7363768 1.2376062 6
4.5946202 2.7215822 1.0373299 5
4.1727347 2.4716818 0.76627344 1
4.1590552 2.4635792 0.59155488 2
3.2742019 1.9394442 0.33250323 7
3.2477026 1.9237475 0.20005672 6
3.2603724 1.9312525 0.065840386 9
3.1966608 1.8807232 -0.99490738 8
3.2244902 1.8970964 -0.86561435 10
3.2230358 1.8962408 -0.72966486 4
3.2258067 1.897871 -0.59695655 4
3.2334952 1.9023945 -0.46238825 5
3.2369401 1.9044212 -0.32908842 5
3.2361395 1.9039502 -0.19993533 3
3.2402213 1.9063516 -0.066257507 3
4.6211843 2.7188275 1.4335731 5
4.6276956 2.7226582 1.2376062 5
4.1711745 2.4540687 0.94008017 3
102.16007 60.104855 18.727659 -1
102.66151 60.399872 14.576301 -1
3.2627695 1.9196177 0.33076239 4
3.2620032 1.9191668 0.20058598 12
3.248853 1.91143 0.065492943 3
3.2028799 1.8701124 -0.99490738 9
3.2223501 1.8814807 -0.86336011 10
3.2293062 1.8855424 -0.72966486 4
3.2150266 1.8772048 -0.59380639 4
3.2312152 1.886657 -0.46116498 4
3.226032 1.8836306 -0.3273426 4
3.2424355 1.8932084 -0.19993533 3
3.2551594 1.9006376 -0.06643372 7
4.6134896 2.6937459 1.4284071 5
4.1822853 2.4419723 1.1163162 6
4.1708121 2.4352732 0.93817329 3
102.35883 59.765751 18.727659 -1
3.2744162 1.9118814 0.46401224 1
3.2605143 1.9037642 0.32989195 11
3.2597258 1.9033039 0.20005672 11
3.263808 1.9056875 0.065666668 3
3.2003829 1.8551972 -0.99231642 9
3.2198162 1.8664621 -0.86110592 9
3.2267225 1.8704656 -0.72774976 4
3.2294517 1.8720477 -0.59538144 4
3.2285399 1.8715191 -0.45994174 5
3.2405522 1.8784823 -0.32821551 4
3.239728 1.8780046 -0.19940358 3
3.2524643 1.8853875 -0.066257507 6
4.2040334 2.4369931 1.2992563 13
4.1730752 2.4190471 1.111824 4
101.91322 59.07703 22.882277 -1
3.2814746 1.9022043 0.59928513 1
103.04942 59.735657 14.576301 -1
3.266479 1.8935117 0.32989195 1
3.2570496 1.8880457 0.19952747 10
3.2611287 1.8904102 0.065492943 3
3.1897733 1.8349419 -0.98713464 8
3.2259879 1.8557745 -0.86110592 9
3.2329075 1.8597552 -0.72774976 5
3.235642 1.8613281 -0.59538144 5
3.2347283 1.8608027 -0.45994174 5
3.2294936 1.8577913 -0.32646969 4
3.237282 1.8622715 -0.19887185 3
3.2326982 1.8596348 -0.065728851 4
4.1702223 2.3989527 1.2863412 4
3.2857332 1.8901435 0.87373644 29
3.2844925 1.8894298 0.73604655 3
102.74265 59.103504 18.727659 -1
3.2780905 1.885747 0.46279752 3
3.2554698 1.8727343 0.32815111 3
3.2632928 1.8772345 0.19952747 8
3.2587128 1.8745998 0.065319225 4
3.1955221 1.8249118 -0.98713464 8
3.231802 1.8456306 -0.86110592 8
3.2216883 1.8398548 -0.72391945 5
3.2243228 1.8413595 -0.59223127 5
3.2233212 1.8407874 -0.45749524 4
3.2266636 1.8426962 -0.32559678 4
3.2431164 1.8520921 -0.19887185 3
3.2558892 1.8593866 -0.066081285 4
100.66839 57.490112 30.996174 -1
3.2916551 1.8798118 0.87373644 3
3.2733634 1.8693657 0.73223281 4
102.92781 58.780437 18.727659 -1
3.2667596 1.8655944 0.46036816 3
3.261337 1.8624977 0.32815111 3
3.2605026 1.8620211 0.19899821 7
3.264586 1.8643531 0.065319225 4
3.2012396 1.8148638 -0.98713464 8
3.2206335 1.8258588 -0.85659748 8
3.218914 1.8248841 -0.72200435 4
3.2129104 1.8214803 -0.58908111 4
3.2463562 1.8404416 -0.45994174 8
3.2411027 1.8374633 -0.32646969 4
3.240232 1.8369697 -0.1983401 3
3.2443187 1.8392866 -0.065728851 3
3.2691722 1.8533766 1.0047927 4
3.2805903 1.8598498 0.86924422 8
3.2792199 1.8590729 0.73223281 4
3.2136564 1.8219033 0.58367872 1
3.2726045 1.8553225 0.46036816 3
3.2585058 1.8473296 0.32728067 3
3.2576492 1.8468438 0.19846897 6
3.2617288 1.8491567 0.0651455 4
3.2069254 1.8047979 -0.98713464 9
3.2263536 1.8157319 -0.85659748 9
3.2246313 1.8147625 -0.72200435 4
3.2272227 1.816221 -0.59065622 6
3.2348235 1.8204985 -0.45749524 7
3.2294962 1.8175005 -0.32472387 4
3.2285824 1.8169861 -0.19727662 3
3.2326543 1.8192778 -0.065376416 4
101.02762 56.856464 30.996174 -1
3.286417 1.8495344 0.86924422 2
3.2764893 1.8439473 0.730326 4
3.2968357 1.8553977 0.5977245 15
3.2697668 1.8401639 0.45915347 3
3.2556117 1.8321978 0.32641023 3
3.2547326 1.8317029 0.19793972 6
3.2588086 1.8339969 0.064971782 5
3.1957154 1.7852931 -0.98195285 9
3.2235367 1.8008355 -0.8543433 9
3.2217481 1.7998363 -0.7200892 4
3.2156703 1.796441 -0.58750606 6
3.2231977 1.8006462 -0.45504874 6
3.2351902 1.8073457 -0.32472387 4
3.2429924 1.8117044 -0.19780836 3
3.2470825 1.8139894 -0.065552637 3
3.263885 1.8233762 0.99962664 4
3.2751973 1.8296958 0.86475199 8
3.2736962 1.8288572 0.72841913 4
3.2854021 1.8353966 0.59460318 9
3.2668662 1.8250417 0.45793876 3
3.2613516 1.8219609 0.32641023 3
3.2517531 1.8165987 0.19741046 6
3.2558255 1.8188736 0.064798057 5
3.1844149 1.7658767 -0.976771 9
3.2206581 1.7859747 -0.85208911 8
3.2188032 1.7849462 -0.7181741 5
3.2212982 1.7863299 -0.58750606 4
3.2375185 1.7953246 -0.45627198 6
3.2321403 1.7923421 -0.32385096 4
3.2312019 1.7918218 -0.19674487 3
3.2352774 1.7940818 -0.065200202 4
101.38286 56.22057 30.996174 -1
3.2809293 1.8193974 0.86475199 3
3.2622559 1.8090423 0.72460544 4
3.2911518 1.8250662 0.59460318 7
3.2725837 1.8147695 0.45793876 3
3.2583473 1.8068749 0.32553983 3
3.2399778 1.7966884 0.19635196 5
3.2527795 1.8037874 0.064624339 5
3.1899469 1.7558638 -0.976771 10
3.226253 1.775848 -0.85208911 9
3.2243948 1.7748252 -0.7181741 5
3.2182431 1.7714391 -0.58593094 4
3.2257531 1.7755729 -0.4538255 5
3.2377551 1.7821792 -0.32385096 5
3.2280669 1.7768465 -0.19621313 4
3.2408977 1.783909 -0.065200202 3
3.266814 1.7981743 0.99704361 4
3.2780921 1.8043822 0.86250591 9
3.2679229 1.7987847 0.72460544 4
3.2795627 1.8051918 0.59148192 6
3.269573 1.799693 0.45672408 3
3.2465532 1.787022 0.32379895 3
3.2456064 1.7865008 0.19635196 5
3.2584302 1.7935596 0.064624339 5
3.2039232 1.7504644 -0.97936195 9
3.2232661 1.7610325 -0.84983492 10
3.2213414 1.7599809 -0.71625894 5
3.2411246 1.7707894 -0.58908111 12
3.2226057 1.7606716 -0.45260224 5
3.2433379 1.7719988 -0.32385096 5
3.2423964 1.7714844 -0.19674487 4
3.2377117 1.7689248 -0.065023988 3
101.7341 55.582458 30.996174 -1
3.2666419 1.7847308 0.85801369 1
3.2649434 1.7838027 0.72269857 3
3.2678816 1.7854081 0.58836067 4
3.2665002 1.7846534 0.45550939 3
3.2608936 1.7815902 0.32466939 3
3.2512028 1.7762957 0.19635196 5
3.2552745 1.7785202 0.064450614 5
3.1924257 1.731182 -0.9741801 10
3.2202184 1.7462534 -0.84758067 10
3.2268546 1.7498521 -0.71625894 5
3.2293098 1.7511834 -0.58593094 9
3.2368457 1.75527 -0.4538255 5
3.2488887 1.7618008 -0.32385096 6
3.2303894 1.7517688 -0.19568139 4
3.2344637 1.7539783 -0.064847767 4
3.2525706 1.7637973 0.98929459 4
3.2807987 1.7791047 0.86025977 13
3.2705312 1.7735369 0.72269857 4
3.2734745 1.7751329 0.58836067 3
3.2720907 1.7743826 0.45550939 3
3.2577171 1.7665881 0.32379895 3
3.2479887 1.7613126 0.19582272 6
3.2520564 1.7635185 0.064276896 6
3.1978486 1.7211442 -0.9741801 9
3.2256885 1.7361281 -0.84758067 10
3.2236934 1.7350544 -0.71434385 4
3.2260997 1.7363495 -0.58435589 6
3.224865 1.735685 -0.451379 5
3.2280917 1.7374216 -0.3212322 5
3.2358766 1.7416116 -0.19568139 3
3.239958 1.7438083 -0.064847767 4
3.2836161 1.7673059 0.99704361 14
3.2863717 1.7687891 0.86025977 4
3.2674427 1.7586011 0.7207917 4
3.2616396 1.7554778 0.58523935 3
3.2776489 1.7640942 0.45550939 3
3.2544787 1.7516236 0.32292855 3
3.2535062 1.7511002 0.19582272 6
3.2575808 1.7532932 0.064276896 5
3.1947207 1.7065386 -0.97158921 11
3.2225332 1.7213954 -0.84532648 9
3.2204711 1.7202939 -0.71242869 7
3.214118 1.7169001 -0.58120573 4
3.2303019 1.7255452 -0.451379 5
3.2335341 1.7272717 -0.3212322 5
3.2325242 1.7267323 -0.19514965 3
3.2277822 1.7241992 -0.064495333 4
3.2550673 1.7387743 0.98671156 4
3.2661271 1.7446821 0.85352147 10
3.2556341 1.739077 0.71697801 4
3.2671385 1.7452223 0.58523935 3
3.2744198 1.7491118 0.45429468 3
3.2511785 1.736697 0.32205811 3
3.2501831 1.7361653 0.19529347 6
3.2454345 1.7336286 0.063929453 5
3.1915326 1.6919698 -0.96899831 8
3.2193174 1.7066997 -0.8430723 10
3.2345314 1.7147652 -0.71434385 8
3.2282207 1.7114197 -0.58278078 5
3.226938 1.7107397 -0.45015574 5
3.2389445 1.7171048 -0.3212322 5
3.2291102 1.7118912 -0.1946179 3
3.2331829 1.7140503 -0.064495333 4
3.2861199 1.7421145 0.99446058 14
3.2802014 1.7389768 0.85576761 3
3.2697546 1.7334386 0.71888483 4
3.2638781 1.7303232 0.58367872 3
3.2711287 1.734167 0.45308 3
3.2478168 1.7218084 0.32118767 3
3.2467985 1.7212685 0.19476421 6
3.2420309 1.7187411 0.063755728 6
3.1968324 1.6819348 -0.96899831 9
3.2246635 1.6965774 -0.8430723 8
3.2225304 1.6954552 -0.71051353 6
3.2161026 1.6920735 -0.57963061 4
3.2147298 1.6913512 -0.44770923 5
3.2266908 1.6976441 -0.31948638 4
3.2256351 1.6970886 -0.19408616 4
3.2297034 1.6992291 -0.064319119 3
3.2573786 1.7137898 0.98412853 4
3.2684009 1.7195889 0.85127538 8
3.2664967 1.718587 0.71697801 4
3.2692981 1.7200609 0.58367872 3
3.258992 1.7146386 0.45065063 3
3.2532101 1.7115966 0.32118767 3
3.2521901 1.71106 0.19476421 6
3.2474146 1.7085475 0.063755728 5
3.1935389 1.6674132 -0.96640742 8
3.2213411 1.6819293 -0.84081811 8
3.2191405 1.6807804 -0.70859843 6
3.2126486 1.6773908 -0.57805556 4
3.2200274 1.6812434 -0.44770923 5
3.2408388 1.6921095 -0.32035929 5
3.2398026 1.6915684 -0.1946179 4
3.2350256 1.6890743 -0.064319119 3
3.2798738 1.7124906 0.98929459 14
3.256511 1.7002923 0.84678316 2
3.2631779 1.7037733 0.71507114 3
3.2746856 1.7097816 0.58367872 4
3.2643626 1.7043917 0.45065063 3
3.2497404 1.6967572 0.32031724 3
3.2398455 1.6915909 0.19370571 6
3.2527661 1.698337 0.063755728 5
3.2073371 1.6618155 -0.96899831 9
3.2179587 1.6673189 -0.83856386 8
3.2244051 1.6706588 -0.70859843 4
3.2179024 1.6672897 -0.57805556 4
3.2252934 1.6711192 -0.44770923 4
3.2284484 1.6727539 -0.31861347 5
3.2273679 1.6721941 -0.19355442 3
3.2225609 1.6697034 -0.063966684 3
3.250927 1.6844007 0.97896248 4
3.2704887 1.6945362 0.84902924 7
3.2597983 1.6889973 0.71316427 3
3.2625005 1.6903974 0.58055747 4
3.2608876 1.6895616 0.44943592 3
3.2462096 1.6819564 0.31944683 3
3.2451437 1.6814042 0.19370571 6
3.2492077 1.6835099 0.063582011 5
3.1953626 1.6428984 -0.96381652 8
3.2145164 1.6527463 -0.83630967 9
3.2121801 1.651545 -0.70476818 5
3.2143421 1.6526568 -0.57648045 4
3.2217009 1.6564401 -0.446486 6
3.2336876 1.6626033 -0.31861347 3
3.2326052 1.6620468 -0.19355442 3
3.2366824 1.6641431 -0.064142905 3
103.09876 53.008316 30.996174 -1
3.2671299 1.6797976 0.84678316 2
3.2563581 1.6742593 0.7112574 4
3.2677951 1.6801395 0.58055747 4
3.2661796 1.679309 0.44943592 3
3.2514775 1.6717499 0.31944683 3
3.241529 1.6666349 0.19317646 7
3.2544806 1.6732939 0.063582011 5
3.1919048 1.6284624 -0.96122557 8
3.2110143 1.6382118 -0.83405548 8
3.2173526 1.6414456 -0.70476818 4
3.2107217 1.6380626 -0.5749054 5
3.2268887 1.6463108 -0.446486 6
3.2388949 1.6524361 -0.31861347 4
3.2378109 1.651883 -0.19355442 3
3.2329884 1.6494226 -0.063966684 3
3.2528408 1.6595511 0.97637951 4
3.263711 1.6650969 0.84453702 9
3.2616019 1.6640209 0.7112574 4
3.2730572 1.6698653 0.58055747 4
3.2625973 1.6645287 0.44822124 3
3.2478395 1.6569996 0.3185764 3
3.2378538 1.6519049 0.1926472 6
3.2508152 1.6585176 0.063408285 6
3.1970048 1.6184267 -0.96122557 7
3.216145 1.6281161 -0.83405548 8
3.2224936 1.6313299 -0.70476818 4
3.215852 1.6279678 -0.5749054 4
3.2231901 1.6316824 -0.44526273 5
3.2262945 1.6332541 -0.31686765 4
3.2251658 1.6326827 -0.19249094 3
3.2292335 1.6347419 -0.06379047 3
103.42979 52.359486 30.996174 -1
3.2689259 1.6548355 0.84453702 2
3.2580552 1.6493324 0.70935059 3
3.2606618 1.6506519 0.57743621 4
3.2589548 1.6497877 0.44700655 4
3.2441411 1.6422886 0.31770596 3
3.2519369 1.646235 0.19317646 6
3.2470889 1.6437808 0.063234568 5
3.1934426 1.6040398 -0.95863467 9
3.212538 1.6136312 -0.8318013 6
3.2276027 1.6211981 -0.70476818 5
3.2209506 1.6178569 -0.5749054 6
3.2194312 1.6170937 -0.44403949 5
3.2314095 1.6231103 -0.31686765 4
3.2302792 1.6225425 -0.19249094 4
3.2343533 1.624589 -0.06379047 3
3.254571 1.634744 0.97379649 3
3.2566931 1.63581 0.8400448 7
3.2544487 1.6346827 0.70744371 4
3.2658315 1.6404002 0.57743621 3
3.2641215 1.6395413 0.44700655 3
3.2492845 1.6320887 0.31770596 3
3.2392454 1.6270462 0.19211796 6
3.2522368 1.6335717 0.063234568 5
3.1898215 1.5896913 -0.95604378 8
3.2088718 1.5991852 -0.82954705 8
3.215111 1.6022946 -0.70093793 5
3.2260175 1.60773 -0.5749054 6
3.2244954 1.6069715 -0.44403949 5
3.2275767 1.6085072 -0.31599474 4
3.226423 1.6079322 -0.19195919 4
3.2394412 1.6144199 -0.06379047 3
103.75673 51.708588 30.996174 -1
3.261816 1.6255708 0.8400448 1
3.259568 1.6244504 0.70744371 4
3.2621284 1.6257263 0.57587552 4
3.2514884 1.6204239 0.44457716 3
3.2543957 1.6218728 0.31770596 4
3.2443409 1.6168618 0.19211796 6
3.2573528 1.6233464 0.063234568 6
3.2034581 1.5839432 -0.95863467 7
3.2138798 1.5890964 -0.82954705 7
3.2201288 1.5921861 -0.70093793 4
3.2222002 1.5932103 -0.57333028 5
3.2206314 1.5924346 -0.44281626 5
3.2236843 1.5939442 -0.3151218 4
3.2314587 1.5977881 -0.19195919 3
3.2355344 1.5998033 -0.063614249 3
3.2561181 1.6099811 0.97121346 3
3.266907 1.6153154 0.8400448 6
3.2558558 1.6098512 0.70553684 4
3.2672195 1.6154701 0.57587552 3
3.2565632 1.610201 0.44457716 3
3.2416148 1.6028099 0.31596512 3
3.2494044 1.6066614 0.19211796 5
3.253474 1.6086736 0.063060842 5
3.1910756 1.5653641 -0.95345289 7
3.2101095 1.5747012 -0.82729286 8
3.2074914 1.5734168 -0.69710767 5
3.2094576 1.5743814 -0.57018012 5
3.2167077 1.5779378 -0.44159299 4
3.2286758 1.5838088 -0.3151218 4
3.2364624 1.5876284 -0.19195919 3
3.2315676 1.5852274 -0.063438036 3
104.07957 51.055649 30.996174 -1
3.263217 1.6007527 0.83779871 2
3.2608972 1.5996147 0.70553684 4
3.2634106 1.6008477 0.57431489 4
3.2526941 1.5955908 0.44336247 3
3.255578 1.5970055 0.31683555 3
3.2454705 1.5920473 0.19158871 6
3.2495351 1.5940411 0.062887125 6
3.1872928 1.5511049 -0.95086199 8
3.2062805 1.5603453 -0.82503867 8
3.2212439 1.5676273 -0.69902277 4
3.2232673 1.5686121 -0.57175523 4
3.2305732 1.5721675 -0.44281626 5
3.2246783 1.5692986 -0.31424889 4
3.2234759 1.5687135 -0.19089571 3
3.236532 1.5750673 -0.063438036 3
3.2401097 1.5768085 0.96346444 4
3.2594676 1.5862291 0.83555257 9
3.2570796 1.5850669 0.70362997 4
3.2684238 1.5905875 0.57431489 4
3.2576909 1.5853643 0.44336247 3
3.2516215 1.5824107 0.31596512 3
3.2324977 1.573104 0.19053021 6
3.2455363 1.5794494 0.0627134 6
3.1921499 1.5410841 -0.95086199 9
3.2199402 1.5545005 -0.82729286 7
3.217314 1.5532327 -0.69710767 4
3.2192862 1.5541848 -0.57018012 4
3.2176206 1.5533807 -0.44036976 4
3.2206213 1.5548292 -0.31337598 4
3.2283883 1.558579 -0.19089571 4
3.2414641 1.5648917 -0.063438036 3
3.2798469 1.5834218 0.97379649 14
3.2644348 1.5759813 0.83555257 3
3.2620432 1.5748267 0.70362997 4
3.2645094 1.5760173 0.57275426 4
3.2537165 1.5708067 0.44214779 3
3.2476056 1.5678566 0.31509468 3
3.2554095 1.5716242 0.19158871 6
3.2504823 1.5692455 0.0627134 6
3.1882646 1.5268763 -0.9482711 10
3.198447 1.5317527 -0.82053024 13
3.2133255 1.5388782 -0.69519252 5
3.224153 1.5440634 -0.57018012 5
3.2314363 1.5475514 -0.44159299 4
3.2254901 1.5447037 -0.31337598 4
3.2332687 1.548429 -0.19089571 3
3.2283289 1.5460634 -0.063085601 3
3.24124 1.5522466 0.96088141 4
3.2517927 1.5573002 0.83106041 8
3.258121 1.5603309 0.70172316 4
3.260536 1.5614874 0.57119364 4
3.2586353 1.5605772 0.44214779 3
3.2525151 1.5576462 0.31509468 3
3.2333117 1.5484495 0.19000095 6
3.2463787 1.5547074 0.062539682 5
3.1930456 1.5168525 -0.9482711 13
3.2208436 1.5300579 -0.82503867 11
3.2181442 1.5287756 -0.69519252 5
3.220068 1.5296896 -0.56860507 4
3.2183526 1.5288745 -0.43914649 4
3.2213287 1.5302885 -0.31250307 4
3.2200775 1.5296941 -0.18983221 3
3.224139 1.5316234 -0.062909387 3
104.71292 49.743752 30.996174 -1
3.2654707 1.551258 0.83330649 2
3.2541399 1.5458753 0.69981629 3
3.2654254 1.5512365 0.57119364 4
3.2545562 1.5460731 0.44093308 3
3.2393959 1.5388712 0.31335384 3
3.2381601 1.5382842 0.19000095 7
3.2512467 1.5445009 0.062539682 5
3.1977952 1.5068138 -0.9482711 31
3.2080081 1.5116262 -0.82053024 16
3.2140527 1.5144744 -0.69327736 4
3.2159247 1.5153565 -0.56702995 5
3.2231398 1.5187563 -0.43914649 4
3.217109 1.5159146 -0.31163016 4
3.2248673 1.5195704 -0.18983221 4
3.2289348 1.5214869 -0.062909387 3
3.2421901 1.5277328 0.95829839 4
3.261513 1.5368379 0.83106041 8
3.2589803 1.5356445 0.69981629 4
3.2613475 1.5367599 0.56963301 3
3.2593973 1.535841 0.44093308 3
3.2442143 1.5286866 0.31335384 3
3.2339435 1.5238471 0.18947171 5
3.2470384 1.5300174 0.06236596 5
0.1 0.1 0.1 -1
3.2127411 1.5015405 -0.82053024 28
3.2187946 1.5043696 -0.69327736 4
3.2206695 1.5052459 -0.56702995 5
3.227895 1.508623 -0.43914649 4
3.2308803 1.5100181 -0.31250307 6
3.2205787 1.5052035 -0.18930048 4
3.2336988 1.5113355 -0.062909387 3
105.02341 49.084843 30.996174 -1
3.2574973 1.5224582 0.82881427 2
3.2460024 1.5170858 0.69600254 4
3.2661593 1.5265065 0.56963301 4
3.255214 1.5213909 0.4397184 3
3.2490008 1.5184872 0.31335384 4
3.2296681 1.5094516 0.18894246 6
3.2427709 1.5155755 0.062192239 5
0.1 0.1 0.1 -1
3.2086034 1.4873426 -0.81827605 129
3.2324095 1.4983779 -0.69519252 5
3.216423 1.4909674 -0.5654549 5
3.2236142 1.4943008 -0.43792325 4
3.2265701 1.495671 -0.31163016 5
3.2252915 1.4950784 -0.18930048 3
3.2293596 1.4969641 -0.062733166 3
3.2341955 1.4992058 0.95313239 3
3.2534232 1.5081187 0.82656819 7
3.2418463 1.5027522 0.69409573 4
3.2619772 1.512084 0.56807238 4
3.2599773 1.5111569 0.4397184 3
3.2447171 1.504083 0.3124834 3
3.2343943 1.499298 0.18894246 5
3.2475162 1.5053805 0.062192239 6
0.1 0.1 0.1 -1
3.2044084 1.4731857 -0.81602186 175
3.2281833 1.4841158 -0.69327736 5
3.2210913 1.4808553 -0.5654549 5
3.2192752 1.4800204 -0.43669999 4
3.2312529 1.4855272 -0.31163016 5
3.2208996 1.4807673 -0.18876873 4
3.224962 1.4826349 -0.062556952 3
3.2739995 1.5051792 0.96346444 14
3.2581451 1.4978904 0.82656819 2
3.2465513 1.4925603 0.69409573 4
3.2577372 1.4977028 0.56651169 4
3.2556901 1.4967618 0.43850371 3
3.2403748 1.4897208 0.31161299 3
3.2300155 1.4849582 0.1884132 6
3.2340605 1.4868178 0.061844796 6
0.1 0.1 0.1 -1
3.2090206 1.4631114 -0.81602186 226
3.2238994 1.4698951 -0.69136226 6
3.2257276 1.4707286 -0.5654549 4
3.2239089 1.4698995 -0.43669999 5
3.2268398 1.4712359 -0.31075725 5
3.2255356 1.4706413 -0.18876873 3
3.2205064 1.4683483 -0.062380735 3
3.2347612 1.4748476 0.95054936 4
3.2539685 1.4836048 0.82432204 7
3.2512243 1.4823536 0.69409573 4
3.2534387 1.4833633 0.56495106 4
3.2603762 1.4865264 0.43850371 3
3.245039 1.4795336 0.31161299 4
3.2346647 1.4748034 0.1884132 6
3.2387156 1.4766505 0.061844796 5
0.1 0.1 0.1 -1
0.1 0.1 0.1 -1
3.2374444 1.4638034 -0.69327736 9
3.221334 1.456519 -0.56387979 5
3.2194674 1.4556751 -0.43547675 4
3.2314458 1.4610912 -0.31075725 4
3.221041 1.4563866 -0.18823698 3
3.2251036 1.4582235 -0.062380735 3
105.63191 47.761238 30.996174 -1
3.2497342 1.4693601 0.82207596 2
3.2469203 1.4680879 0.69218886 4
3.2490826 1.4690655 0.56339043 3
3.255986 1.4721869 0.437289 3
3.2405937 1.4652274 0.31074256 3
3.2392819 1.4646342 0.1884132 6
3.2433386 1.4664685 0.061844796 5
0.1 0.1 0.1 -1
0.1 0.1 0.1 -1
3.2151594 1.4415789 -0.68753201 18
3.2168829 1.4423516 -0.56230468 8
3.2330809 1.4496142 -0.43669999 4
3.2269301 1.4468564 -0.30988434 4
3.2256005 1.4462602 -0.18823698 4
3.2296689 1.4480844 -0.062380735 3
3.2351489 1.4505415 0.94796634 4
3.2543342 1.4591436 0.82207596 7
3.2515166 1.4578803 0.69218886 4
3.2536817 1.458851 0.56339043 3
3.2515376 1.4578897 0.43607432 3
3.254271 1.4591153 0.31161299 3
3.2256432 1.4462794 0.1873547 6
3.2388062 1.4521813 0.061671074 5
0.1 0.1 0.1 -1
0.1 0.1 0.1 -1
0.1 0.1 0.1 -1
3.2304218 1.4362502 -0.56387979 23
3.219481 1.4313859 -0.43425351 5
3.222357 1.4326645 -0.30901143 5
3.2118788 1.4280059 -0.1871735 4
3.2250659 1.433869 -0.062204517 3
3.257345 1.4482203 0.95313239 14
3.2678063 1.4528713 0.82432204 2
3.2471106 1.44367 0.69028199 4
3.2582488 1.4486221 0.56339043 4
3.2561016 1.4476675 0.43607432 3
3.240633 1.4407902 0.30987212 3
3.230171 1.4361386 0.1873547 5
3.2342162 1.4379371 0.061497353 6
0.1 0.1 0.1 -1
0.1 0.1 0.1 -1
0.1 0.1 0.1 -1
3.2258818 1.4221109 -0.56230468 90
3.2330437 1.4252682 -0.43547675 4
3.2359571 1.4265527 -0.30988434 5
3.2254865 1.4219366 -0.18770525 4
3.2204058 1.4196968 -0.0620283 3
3.244199 1.430186 0.94796634 4
3.2545214 1.4347365 0.81982982 11
3.2426476 1.429502 0.68837512 4
3.2537456 1.4343945 0.56182981 4
3.2515509 1.433427 0.43485963 3
3.236028 1.4265838 0.30900168 3
3.2346668 1.4259837 0.1873547 6
3.2387178 1.4277695 0.061497353 5
0.1 0.1 0.1 -1
0.1 0.1 0.1 -1
0.1 0.1 0.1 -1
3.2122366 1.4040593 -0.55915451 140
3.2375052 1.4151042 -0.43547675 5
3.2312949 1.4123898 -0.30901143 5
3.2207878 1.4077971 -0.1871735 4
3.2248499 1.4095726 -0.0620283 4
3.2575281 1.4238561 0.95054936 13
3.2679415 1.4284079 0.82207596 3
3.2381277 1.4153763 0.6864683 4
3.2491851 1.4202094 0.56026918 4
3.2560382 1.4232049 0.43485963 3
3.2404938 1.4164104 0.30900168 3
3.2299805 1.4118152 0.18682545 5
3.2340257 1.4135833 0.061323632 6
0.1 0.1 0.1 -1
0.1 0.1 0.1 -1
0.1 0.1 0.1 -1
3.2166317 1.3939608 -0.55915451 158
3.2237217 1.3970335 -0.43303025 5
3.2357161 1.4022313 -0.30901143 6
3.216032 1.3937011 -0.18664175 4
3.2200882 1.3954588 -0.061852083 3
3.244257 1.4059327 0.94538331 4
3.2545309 1.4103849 0.81758374 10
3.2515655 1.4090998 0.68837512 4
3.2536306 1.4099948 0.56026918 4
3.2513857 1.409022 0.43364492 3
3.2357869 1.402262 0.30813128 3
3.2252374 1.3976903 0.18629621 6
3.2384505 1.4034163 0.061323632 8
0.1 0.1 0.1 -1
0.1 0.1 0.1 -1
0.1 0.1 0.1 -1
3.2028487 1.3760524 -0.55600435 132
3.2280948 1.386899 -0.43303025 5
3.2309525 1.3881267 -0.30813852 5
3.2203946 1.3835907 -0.18664175 4
3.2152698 1.381389 -0.061675865 3
3.2752862 1.407174 0.95313239 14
3.2589457 1.4001535 0.81758374 3
3.2469568 1.3950027 0.6864683 4
3.2489691 1.3958672 0.55870855 4
3.2466764 1.3948822 0.43243024 3
3.2310231 1.3881571 0.30726084 3
3.2296124 1.387551 0.18629621 6
3.2428436 1.3932356 0.061323632 5
0.1 0.1 0.1 -1
0.1 0.1 0.1 -1
0.1 0.1 0.1 -1
3.1980703 1.3621138 -0.55442929 114
3.2324359 1.3767508 -0.43303025 5
3.2261324 1.374066 -0.30726558 5
3.2247255 1.3734667 -0.18664175 4
3.2195938 1.3712811 -0.061675865 4
3.2352505 1.3779496 0.94021732 4
3.2543631 1.3860899 0.8153376 8
3.2513232 1.3847953 0.6864683 3
3.2533381 1.3856534 0.55870855 4
3.2510426 1.3846756 0.43243024 3
3.2353683 1.3779997 0.30726084 3
3.2247682 1.373485 0.18576695 5
3.2380056 1.379123 0.06114991 6
0.1 0.1 0.1 -1
0.1 0.1 0.1 -1
0.1 0.1 0.1 -1
3.2023337 1.3520602 -0.55442929 124
3.2276018 1.3627286 -0.43180701 5
3.2212558 1.3600492 -0.30639267 5
3.2198248 1.3594451 -0.18611002 4
3.223886 1.3611597 -0.061675865 4
3.2662632 1.3790519 0.94796634 14
3.2587016 1.3758593 0.8153376 2
3.2556577 1.3745741 0.6864683 4
3.2576752 1.3754259 0.55870855 4
3.2462323 1.3705945 0.43121555 3
3.2396815 1.3678287 0.30726084 3
3.2290671 1.3633473 0.18576695 5
3.2331111 1.3650547 0.060976189 8
0.1 0.1 0.1 -1
0.1 0.1 0.1 -1
0.1 0.1 0.1 -1
3.2065656 1.3419931 -0.55442929 103
3.2135561 1.3449187 -0.42936051 5
3.2255127 1.3499227 -0.30639267 5
3.2240798 1.349323 -0.18611002 3
3.2189229 1.3471648 -0.061499652 4
3.2438445 1.3575948 0.94021732 4
3.2630079 1.365615 0.8153376 7
3.2418492 1.3567598 0.68265456 4
3.2528687 1.3613715 0.55714786 4
3.2505221 1.3603895 0.43121555 3
3.2439625 1.3576442 0.30726084 3
3.2241225 1.3493409 0.18523771 6
3.2373836 1.3548908 0.060976189 6
0.1 0.1 0.1 -1
0.1 0.1 0.1 -1
0.1 0.1 0.1 -1
3.2107658 1.3319128 -0.55442929 130
3.2361004 1.3424222 -0.43180701 5
3.2297378 1.3397828 -0.30639267 5
3.228303 1.3391876 -0.18611002 4
3.2139039 1.3332145 -0.061323434 4
107.08001 44.419693 30.996174 -1
3.2492805 1.3478897 0.81084538 2
3.2460954 1.3465685 0.68265456 4
3.2571294 1.3511456 0.55714786 4
3.2547798 1.350171 0.43121555 3
3.2298083 1.339812 0.30552 3
3.2283456 1.3392054 0.18523771 6
3.2323887 1.3408825 0.060802467 6
0.1 0.1 0.1 -1
0.1 0.1 0.1 -1
0.1 0.1 0.1 -1
3.2058008 1.3180641 -0.55285418 129
3.2311223 1.328475 -0.43058375 5
3.2247174 1.3258415 -0.30551976 5
3.2232585 1.3252418 -0.18557827 4
3.2180765 1.3231112 -0.061323434 4
3.2433755 1.3335129 0.93763429 3
3.2534988 1.3376751 0.81084538 7
3.2503099 1.3363639 0.68265456 4
3.2522225 1.3371503 0.55558723 4
3.2590053 1.3399391 0.43121555 3
3.2340014 1.3296587 0.30552 3
3.2233012 1.3252593 0.18470845 6
3.2365854 1.3307211 0.060802467 6
0.1 0.1 0.1 -1
0.1 0.1 0.1 -1
0.1 0.1 0.1 -1
3.2099259 1.3079863 -0.55285418 173
3.2168977 1.3108271 -0.42813724 5
3.2196412 1.3119452 -0.30464685 5
3.2274058 1.3151091 -0.18557827 4
3.2129581 1.3092219 -0.061147217 4
107.35699 43.746017 30.996174 -1
3.2486613 1.3237702 0.80859929 2
3.2454014 1.3224419 0.68074769 4
3.2564073 1.3269266 0.55558723 4
3.2448146 1.3222028 0.42878616 3
3.2381628 1.3194922 0.30552 3
3.2366965 1.3188947 0.18523771 5
3.2407498 1.3205465 0.060802467 4
0.1 0.1 0.1 -1
0.1 0.1 0.1 -1
0.1 0.1 0.1 -1
3.223176 1.3015933 -0.55442929 138
3.2302027 1.3044308 -0.42936051 9
3.2422211 1.3092842 -0.30639267 5
3.2222621 1.3012242 -0.18504652 3
3.2170551 1.2991216 -0.061147217 4
3.2337747 1.3058733 0.93246824 4
3.2528038 1.3135577 0.80859929 6
3.2404375 1.3085639 0.67884088 3
3.2605598 1.3166897 0.55558723 4
3.2489524 1.3120024 0.42878616 3
3.2330546 1.3055825 0.30464956 3
3.2223048 1.3012415 0.1841792 7
3.2356114 1.306615 0.060628746 5
0.1 0.1 0.1 -1
0.1 0.1 0.1 -1
0.1 0.1 0.1 -1
3.2455857 1.2987988 -0.55757946 122
3.2434993 1.2979639 -0.43058375 8
3.2185721 1.2879887 -0.30377394 11
3.217063 1.2873847 -0.18451479 4
3.2211206 1.2890085 -0.061147217 4
3.2737377 1.3100644 0.94280028 13
3.2569146 1.3033323 0.80859929 2
3.2536464 1.3020245 0.68074769 4
3.2555099 1.3027701 0.5540266 3
3.2438428 1.2981013 0.42757148 3
3.2371404 1.2954192 0.30464956 3
3.226377 1.2911119 0.1841792 6
3.2397003 1.2964436 0.060628746 6
0.1 0.1 0.1 -1
0.1 0.1 0.1 -1
0.1 0.1 0.1 -1
3.2680097 1.2958763 -0.56072962 131
3.275239 1.298743 -0.43425351 7
3.2411232 1.285215 -0.30551976 13
3.2210915 1.2772717 -0.18451479 5
3.2158599 1.2751971 -0.060970999 4
3.2419157 1.2855293 0.93246824 4
3.2519348 1.289502 0.80635315 7
3.2485955 1.288178 0.67884088 4
3.2595866 1.2925363 0.5540266 3
3.2571318 1.2915629 0.42878616 3
3.2319336 1.2815709 0.30377913 3
3.2304173 1.2809696 0.1841792 7
3.2437572 1.2862594 0.060628746 7
0.1 0.1 0.1 -1
0.1 0.1 0.1 -1
0.1 0.1 0.1 -1
3.290447 1.2928257 -0.56387979 152
3.3070154 1.2993355 -0.43792325 6
3.2636886 1.2823123 -0.30726558 6
3.2343826 1.2707978 -0.18504652 8
3.2198501 1.265088 -0.060970999 4
107.89822 42.393509 30.996174 -1
3.2559698 1.2792795 0.80635315 1
3.2526264 1.2779659 0.67884088 4
3.2544377 1.2786776 0.55246598 4
3.2519348 1.2776941 0.42757148 3
3.2359438 1.2714112 0.30377913 4
3.2344255 1.2708147 0.1841792 7
3.238476 1.2724062 0.060455024 7
0.1 0.1 0.1 -1
0.1 0.1 0.1 -1
0.1 0.1 0.1 -1
3.3220997 1.2932291 -0.56860507 161
3.3203299 1.2925401 -0.43914649 10
3.2955508 1.2828941 -0.30988434 10
3.2662759 1.271498 -0.18664175 7
3.2331259 1.2585933 -0.061147217 10
3.2319238 1.2581253 0.92730224 4
3.2599726 1.2690442 0.80635315 10
3.2383294 1.260619 0.67502713 4
3.2676435 1.2720304 0.5540266 4
3.2466829 1.2638708 0.42635679 3
3.239922 1.2612389 0.30377913 7
3.2290962 1.2570246 0.18364996 6
3.2331402 1.2585988 0.060281303 7
0.1 0.1 0.1 -1
0.1 0.1 0.1 -1
0.1 0.1 0.1 -1
3.3630009 1.2969998 -0.5749054 163
3.3428943 1.2892452 -0.44159299 7
3.3088593 1.2761191 -0.31075725 7
3.2888882 1.2684169 -0.18770525 7
3.2557216 1.2556256 -0.061499652 4
3.2719145 1.2618707 0.93763429 14
3.2639434 1.2587965 0.80635315 2
3.2514329 1.2539716 0.676934 4
3.2531917 1.25465 0.55090535 3
3.2506375 1.2536649 0.42635679 3
3.2438684 1.2510542 0.30377913 6
3.2423463 1.2504672 0.1841792 11
3.2557356 1.2556311 0.060628746 13
0.1 0.1 0.1 -1
0.1 0.1 0.1 -1
0.1 0.1 0.1 -1
3.3947334 1.2970016 -0.57963061 181
3.3932843 1.296448 -0.44770923 7
3.3314636 1.2728285 -0.31250307 9
3.3021851 1.2616422 -0.18823698 7
3.2876699 1.2560966 -0.0620283 6
3.2397649 1.2377939 0.92730224 4
3.2496765 1.2415806 0.80186099 8
3.2461863 1.2402472 0.67502713 4
3.2571173 1.2444236 0.55090535 4
3.2452877 1.2399039 0.42514208 3
3.2384768 1.2373017 0.30290872 3
3.2462587 1.2402749 0.1841792 9
3.2690043 1.2489651 0.060802467 13
0.1 0.1 0.1 -1
0.1 0.1 0.1 -1
0.1 0.1 0.1 -1
3.4542065 1.3073031 -0.58908111 191
3.4066229 1.2892944 -0.4489325 7
3.3727133 1.2764606 -0.31599474 7
3.324811 1.2583312 -0.18930048 6
3.300951 1.249301 -0.062204517 6
108.42242 41.034309 30.996174 -1
3.2535608 1.2313654 0.80186099 2
3.2500665 1.2300429 0.67502713 4
3.2517726 1.2306887 0.54934472 3
3.249167 1.2297025 0.42514208 5
3.2423477 1.2271216 0.30290872 3
3.2781577 1.2406745 0.18576695 10
3.3009655 1.2493064 0.061323632 11
0.1 0.1 0.1 -1
0.1 0.1 0.1 -1
0.1 0.1 0.1 -1
3.4675431 1.2999114 -0.59065622 181
3.4292433 1.2855536 -0.451379 7
3.3860347 1.2693555 -0.31686765 7
3.3661494 1.2619009 -0.19142744 6
3.3329461 1.2494537 -0.062733166 5
3.2384324 1.2140224 0.92471921 3
3.2391644 1.2142968 0.79736876 6
3.2355311 1.2129349 0.67121345 4
3.2556231 1.2204669 0.54934472 4
3.2623086 1.2229731 0.42635679 7
3.2834992 1.2309171 0.3063904 3
3.3100908 1.2408857 0.1873547 10
3.3142362 1.2424397 0.061497353 9
0.1 0.1 0.1 -1
0.1 0.1 0.1 -1
0.1 0.1 0.1 -1
3.5086403 1.3027608 -0.59695655 158
3.4704819 1.2885926 -0.45627198 8
3.4273612 1.2725818 -0.32035929 7
3.3888199 1.2582715 -0.19249094 5
3.3649745 1.2494177 -0.063261814 5
108.67811 40.352264 30.996174 -1
3.2612336 1.2108985 0.80186099 2
3.2485282 1.206181 0.67312032 5
3.2687008 1.2136712 0.55090535 7
3.284745 1.2196283 0.42878616 8
3.3060284 1.2275308 0.30813128 6
3.3139727 1.2304807 0.1873547 9
3.3462427 1.2424625 0.062018517 9
0.1 0.1 0.1 -1
0.1 0.1 0.1 -1
0.1 0.1 0.1 -1
3.5219841 1.29514 -0.5985316 131
3.4838281 1.2811089 -0.45749524 7
3.4406919 1.2652464 -0.3212322 7
3.4115007 1.2545118 -0.19355442 5
3.378267 1.2422909 -0.063438036 6
3.2369292 1.1903167 0.92213619 4
3.2467301 1.1939207 0.79736876 9
3.2615149 1.1993576 0.67502713 7
3.2817681 1.2068053 0.55246598 7
3.2978764 1.2127287 0.43000087 5
3.3192184 1.2205769 0.30900168 4
3.3459392 1.2304029 0.18894246 9
3.387666 1.2457471 0.0627134 9
0.1 0.1 0.1 -1
0.1 0.1 0.1 -1
0.1 0.1 0.1 -1
3.5353146 1.287448 -0.60010672 89
3.5158129 1.2803462 -0.46116498 7
3.4727314 1.2646573 -0.32385096 7
3.4435742 1.2540392 -0.19514965 5
3.4103379 1.2419356 -0.063966684 6
108.9295 39.668629 30.996174 -1
3.2504649 1.183715 0.79736876 3
3.2744906 1.1924644 0.676934 8
3.3041058 1.2032492 0.55558723 6
3.3296502 1.2125517 0.43364492 5
3.3604791 1.2237786 0.3124834 5
3.3779376 1.2301364 0.19053021 8
3.4103527 1.241941 0.063060842 9
0.1 0.1 0.1 -1
0.1 0.1 0.1 -1
0.1 0.1 0.1 -1
3.5669861 1.2870077 -0.60483193 96
3.5476036 1.2800144 -0.46483472 7
3.50458 1.2644908 -0.32646969 8
3.4660659 1.2505946 -0.19621313 4
3.4328177 1.2385983 -0.064319119 5
3.2350528 1.1672425 0.91955316 5
3.281461 1.1839871 0.80410707 9
3.3057158 1.1927385 0.68265456 7
3.3355348 1.2034975 0.56026918 7
3.3612437 1.2127736 0.437289 5
3.3828368 1.2205646 0.31422427 4
3.4003592 1.2268869 0.19158871 9
3.4328327 1.2386037 0.063408285 9
0.1 0.1 0.1 -1
0.1 0.1 0.1 -1
0.1 0.1 0.1 -1
3.5800879 1.2797426 -0.60640705 118
3.5700774 1.2761643 -0.46728122 6
3.5176969 1.2574402 -0.3273426 7
3.5073738 1.2537502 -0.1983401 9
3.4647226 1.2385039 -0.064847767 3
3.2748895 1.1706461 0.92988521 9
3.3124871 1.1840857 0.81084538 5
3.3277276 1.1895336 0.6864683 7
3.348392 1.1969203 0.56182981 6
3.3928673 1.2128185 0.44093308 4
3.4052048 1.2172287 0.31596512 5
3.4321942 1.2268764 0.19317646 9
3.4553227 1.2351439 0.063755728 10
0.1 0.1 0.1 -1
0.1 0.1 0.1 -1
0.1 0.1 0.1 -1
3.6217752 1.2804041 -0.61270738 102
3.6119397 1.276927 -0.47217423 6
3.5596333 1.2584351 -0.33083427 6
3.5493882 1.2548132 -0.20046708 8
3.4878781 1.2330675 -0.065200202 6
3.288064 1.1624274 0.93246824 7
3.3257873 1.1757637 0.81309152 9
3.3503699 1.1844543 0.69028199 6
3.3804874 1.1951019 0.56651169 7
3.4064386 1.2042763 0.44214779 4
3.4376101 1.2152964 0.3185764 5
3.4647007 1.2248737 0.19476421 9
3.4784665 1.2297403 0.064103171 10
0.1 0.1 0.1 -1
0.1 0.1 0.1 -1
0.1 0.1 0.1 -1
3.6444213 1.2755442 -0.61585754 125
3.6440365 1.2754096 -0.47584397 6
3.5917768 1.2571187 -0.333453 6
3.5627379 1.246955 -0.20099881 7
3.5106089 1.2287099 -0.065552637 4
3.3099363 1.1584747 0.93763429 6
3.3478596 1.1717478 0.81758374 7
3.3911362 1.1868945 0.69790941 5
3.4121943 1.1942649 0.57119364 6
3.4383113 1.2034059 0.44579184 5
3.4602168 1.2110727 0.32031724 5
3.4968078 1.2238796 0.19635196 8
3.5106242 1.2287153 0.064624339 9
0.1 0.1 0.1 -1
0.1 0.1 0.1 -1
0.1 0.1 0.1 -1
3.6764035 1.2737875 -0.62058276 115
3.6574035 1.2672044 -0.47706723 6
3.6145344 1.2523513 -0.33519882 12
3.5855091 1.2422947 -0.20206231 8
3.5522416 1.2307682 -0.066257507 4
3.3409443 1.1575587 0.94538331 7
3.3791466 1.170795 0.82432204 7
3.4041235 1.1794488 0.69981629 6
3.4439287 1.1932404 0.57587552 6
3.4608328 1.1990973 0.44822124 5
3.4922435 1.2099804 0.32292855 5
3.5289426 1.2226957 0.19793972 10
3.5522571 1.2307737 0.065319225 8
0.1 0.1 0.1 -1
0.1 0.1 0.1 -1
0.1 0.1 0.1 -1
3.6990693 1.2686387 -0.62373292 115
3.6989188 1.2685871 -0.48196024 6
3.665566 1.2571484 -0.3395634 6
3.6082857 1.2375034 -0.20312579 7
3.5750058 1.2260897 -0.066609934 4
3.3719788 1.1564592 0.95313239 7
3.4104605 1.169657 0.83106041 8
3.4356689 1.1783025 0.70553684 5
3.4570036 1.1856195 0.57743621 7
3.5021391 1.2010993 0.45308 4
3.514874 1.2054669 0.32466939 5
3.5516582 1.2180823 0.19899821 9
3.5750215 1.2260951 0.065666668 9
0.1 0.1 0.1 -1
0.1 0.1 0.1 -1
0.1 0.1 0.1 -1
3.7497921 1.2728828 -0.63160837 96
3.7310805 1.2665312 -0.48562998 6
3.6789305 1.2488286 -0.34043631 12
3.6405232 1.2357911 -0.20472102 7
3.6167114 1.2277081 -0.067314804 4
3.3938911 1.1520708 0.95829839 7
3.4325731 1.1652015 0.83555257 7
3.4672403 1.1769695 0.7112574 6
3.4887712 1.1842782 0.58211809 5
3.5246937 1.1964723 0.45550939 4
3.5563772 1.2072273 0.32815111 5
3.5838354 1.2165482 0.20058598 9
3.6072593 1.2244996 0.066187829 9
0.1 0.1 0.1 -1
0.1 0.1 0.1 -1
0.1 0.1 0.1 -1
3.7818553 1.2705309 -0.63633364 138
3.7632656 1.2642856 -0.48929971 6
3.7111652 1.2467822 -0.34305504 7
3.6822515 1.2370685 -0.206848 6
3.6489842 1.2258922 -0.067843452 4
3.4249668 1.1506326 0.96604747 6
3.463928 1.1637218 0.84229094 7
3.4895315 1.1723235 0.71507114 7
3.5205641 1.1827489 0.58680004 5
3.5566626 1.1948764 0.45915347 4
3.5790391 1.2023939 0.32989195 4
3.6160378 1.2148237 0.20217372 10
3.6395221 1.2227135 0.066708997 9
0.1 0.1 0.1 -1
0.1 0.1 0.1 -1
0.1 0.1 0.1 -1
3.80457 1.2648746 -0.63948381 131
3.8048911 1.2649813 -0.49419272 6
3.7623293 1.2508311 -0.34741962 7
3.7145472 1.2349454 -0.20844322 6
3.671793 1.2207313 -0.068195887 5
3.4560664 1.1490104 0.97379649 8
3.5045543 1.1651307 0.85127538 6
3.521143 1.1706458 0.7207917 6
3.5617545 1.1841476 0.59304255 6
3.5886559 1.1930914 0.46279752 4
3.6111586 1.2005726 0.33250323 6
3.6482644 1.2129089 0.20376147 9
3.6718092 1.2207366 0.067230158 10
0.1 0.1 0.1 -1
0.1 0.1 0.1 -1
0.1 0.1 0.1 -1
3.855428 1.268346 -0.64735919 117
3.8371298 1.2623262 -0.49786246 8
3.785166 1.2452314 -0.34916544 5
3.7468657 1.2326314 -0.21003845 5
3.7136009 1.221688 -0.068900757 5
3.4871895 1.147204 0.98154551 8
3.5267103 1.1602055 0.85576761 6
3.5527778 1.168781 0.72651225 6
3.5936053 1.1822124 0.5977245 6
3.6112442 1.1880151 0.46522692 4
3.643302 1.1985614 0.33511451 5
3.6900003 1.2139241 0.20587848 8
3.7041192 1.2185689 0.067751318 10
0.1 0.1 0.1 -1
0.1 0.1 0.1 -1
0.1 0.1 0.1 -1
3.8875644 1.2653971 -0.65208447 115
3.8599517 1.2564092 -0.50030899 6
3.8174775 1.2425838 -0.3517842 6
3.7887018 1.2332174 -0.21216542 5
3.7459428 1.2192994 -0.069429405 5
3.5091488 1.1422234 0.98671156 7
3.5581357 1.1581684 0.86250591 6
3.5844357 1.166729 0.73223281 6
3.6160865 1.1770314 0.60084575 6
3.6432741 1.1858809 0.468871 5
3.675468 1.1963599 0.33772579 5
3.7222826 1.211598 0.20746623 9
3.7459593 1.2193048 0.068446204 9
0.1 0.1 0.1 -1
0.1 0.1 0.1 -1
0.1 0.1 0.1 -1
3.9197199 1.2622586 -0.65680969 104
3.9111154 1.2594877 -0.5064252 10
3.8687737 1.2458526 -0.35614875 4
3.8210728 1.2304915 -0.21376064 4
3.7878234 1.2197844 -0.070134275 4
3.5403068 1.1400771 0.99446058 8
3.5803075 1.1529584 0.86699814 9
3.6161151 1.1644895 0.73795342 6
3.6385703 1.1717207 0.60396701 6
3.6847742 1.1865996 0.47372976 5
3.7171383 1.1970217 0.3412075 5
3.7545865 1.2090811 0.20905398 8
3.7783229 1.2167249 0.068967372 9
0.1 0.1 0.1 -1
0.1 0.1 0.1 -1
0.1 0.1 0.1 -1
3.9613032 1.2619281 -0.66311002 223
0.1 0.1 0.1 -1
3.901144 1.2427635 -0.35876751 8
3.8724933 1.2336365 -0.21641937 7
3.8392706 1.2230529 -0.071015358 5
3.5714855 1.1377463 1.0022097 7
3.6210508 1.153536 0.87598258 9
3.6478157 1.1620624 0.74367398 6
3.6704679 1.1692785 0.60864896 5
3.716857 1.1840563 0.47737384 4
3.7588487 1.1974334 0.34468922 5
3.786911 1.206373 0.21064173 7
3.8107071 1.2139536 0.069488533 8
0.1 0.1 0.1 -1
0.1 0.1 0.1 -1
0.1 0.1 0.1 -1
3.1740823 1.0001752 -0.53080302 225
3.2279289 1.0171428 -0.417128 31
114.01544 35.927055 -10.474963 -1
3.9144466 1.2334691 -0.21854633 6
3.8717027 1.2200003 -0.071544006 4
3.6118984 1.1381341 1.0125417 7
3.643245 1.1480117 0.88047481 9
3.6701739 1.1564971 0.74748766 6
3.7118065 1.1696159 0.61489153 6
3.7489595 1.1813231 0.48101792 4
3.7815948 1.1916066 0.34643006 5
3.8478281 1.2124772 0.21381724 9
3.8621833 1.2170006 0.070357144 6
0.1 0.1 0.1 -1
0.1 0.1 0.1 -1
0.1 0.1 0.1 -1
3.1489248 0.9813838 -0.52607781 1
3.1837316 0.99223155 -0.41101176 1
3.252641 1.0137076 -0.29853645 1
3.946903 1.2300791 -0.22014156 6
3.9136987 1.2197307 -0.072248876 4
3.6339023 1.1325303 1.0177077 8
3.684046 1.148158 0.88945919 8
3.7112768 1.1566446 0.75511509 6
3.7531831 1.169705 0.62113404 6
3.7810814 1.1783997 0.484662 4
3.8233631 1.1915771 0.34991178 5
3.8611519 1.2033542 0.21434648 7
3.8946245 1.2137861 0.070878305 7
0.1 0.1 0.1 -1
0.1 0.1 0.1 -1
0.1 0.1 0.1 -1
3.1519926 0.97148633 -0.52607781 94
3.2152867 0.99099451 -0.41468152 11
3.2653294 1.0064183 -0.29940936 11
3.9889193 1.2294384 -0.22226854 3
3.9461758 1.2162644 -0.072777525 4
3.6651385 1.1296449 1.0254568 8
3.7062593 1.1423188 0.89395142 7
3.7430351 1.1536536 0.76083571 6
3.7851572 1.1666362 0.62581599 5
3.8227074 1.1782097 0.48952076 4
3.8651681 1.1912967 0.3533935 4
3.9030852 1.2029833 0.21646349 7
3.9366381 1.2133247 0.07157319 6
0.1 0.1 0.1 -1
0.1 0.1 0.1 -1
0.1 0.1 0.1 -1
3.1455827 0.9587003 -0.52450269 134
3.2278779 0.98378199 -0.41590476 15
3.2398877 0.98744231 -0.29679063 13
4.0405226 1.2314571 -0.22492725 4
3.997798 1.2184356 -0.073658608 3
3.6963923 1.1265743 1.0332059 7
3.7377932 1.1391923 0.90068978 8
3.7842014 1.1533364 0.76846313 6
3.8077004 1.1604984 0.62893724 6
3.8643689 1.1777697 0.49437952 4
3.8974795 1.187861 0.35600477 4
3.9546063 1.2052718 0.21910974 6
3.978687 1.2126112 0.072268076 6
0.1 0.1 0.1 -1
0.1 0.1 0.1 -1
0.1 0.1 0.1 -1
3.1485791 0.9488135 -0.52450269 126
3.2404554 0.97650015 -0.417128 23
3.2143595 0.96863616 -0.2941719 3
4.0730548 1.227401 -0.22652248 2
4.0303259 1.2145249 -0.074187256 5
3.7276626 1.1233183 1.0409548 8
3.7693439 1.1358788 0.90742809 8
3.825402 1.1527717 0.77609056 6
3.8586142 1.1627802 0.63674045 6
3.8965614 1.1742154 0.4980236 4
3.948884 1.1899827 0.3603569 4
4.0061798 1.2072484 0.221756 7
4.0303435 1.2145301 0.07313668 4
0.1 0.1 0.1 -1
0.1 0.1 0.1 -1
0.1 0.1 0.1 -1
3.1420801 0.93609768 -0.52292764 135
3.214972 0.9578138 -0.41345826 6
3.2173867 0.95853323 -0.2941719 21
4.0673203 1.2117479 -0.22599073 2
4.0724502 1.2132763 -0.074892126 2
3.7774658 1.1253936 1.05387 7
3.8195879 1.1379428 0.91865861 10
3.8572283 1.1491567 0.78181112 6
3.9001133 1.1619332 0.64298302 5
3.9287694 1.1704704 0.50166768 4
3.9907923 1.1889485 0.36383861 4
4.0578041 1.2089128 0.22440225 5
4.0724683 1.2132816 0.073831566 4
0.1 0.1 0.1 -1
0.1 0.1 0.1 -1
0.1 0.1 0.1 -1
3.1450055 0.92622197 -0.52292764 125
0.1 0.1 0.1 -1
3.2108262 0.94560647 -0.29329896 3
4.0806861 1.2017852 -0.22652248 2
4.0858331 1.203301 -0.07506834 2
3.808784 1.1217085 1.0616189 7
3.8605342 1.1369492 0.92764306 8
3.8984859 1.1481262 0.78943855 5
3.9416449 1.1608367 0.64922553 7
3.9800351 1.1721429 0.50774115 4
4.0422888 1.190477 0.36819077 6
4.0903196 1.2046223 0.22599 3
4.0954423 1.2061309 0.074179009 3
0.1 0.1 0.1 -1
0.1 0.1 0.1 -1
0.1 0.1 0.1 -1
3.1478999 0.91633707 -0.52292764 183
3.2018678 0.93204689 -0.41101176 22
3.2233458 0.938299 -0.2941719 10
4.0748539 1.1861684 -0.22599073 2
4.0799932 1.1876645 -0.074892126 2
3.840116 1.1178375 1.069368 7
3.9108677 1.138433 0.93887359 7
3.939775 1.1468477 0.79706597 6
3.9832077 1.1594908 0.65546811 5
4.0408802 1.1762789 0.51502925 4
4.084269 1.1889093 0.37167245 4
4.122848 1.2001393 0.22757775 6
4.0992112 1.1932588 0.074179009 2
0.1 0.1 0.1 -1
0.1 0.1 0.1 -1
0.1 0.1 0.1 -1
0.1 0.1 0.1 -1
3.1952422 0.91923934 -0.40978852 1
3.1784101 0.91439688 -0.28980732 45
4.0785599 1.1733611 -0.22599073 2
4.0740952 1.1720767 -0.074715905 3
3.8900292 1.1191226 1.0822831 8
3.9518836 1.1369176 0.94785804 7
3.9905276 1.148035 0.80660021 5
4.0248003 1.157895 0.66171068 8
4.0731726 1.1718112 0.51867336 3
4.1071315 1.1815808 0.37341332 2
4.0978074 1.1788985 0.22599 5
4.1029396 1.1803749 0.074179009 3
0.1 0.1 0.1 -1
0.1 0.1 0.1 -1
0.1 0.1 0.1 -1
2.4411867 0.69400859 -0.40479639 149
0.1 0.1 0.1 -1
3.0566993 0.86899358 -0.27845943 2
4.0822263 1.1605421 -0.22599073 3
4.0777574 1.1592717 -0.074715905 2
3.9399881 1.120105 1.0951982 8
3.9835551 1.1324908 0.9545964 6
4.0224419 1.143546 0.81232083 5
4.075923 1.1587503 0.66951382 7
4.1245723 1.1725807 0.52474684 2
114.98807 32.690128 10.445127 -1
4.101491 1.166019 0.22599 5
4.0970101 1.1647451 0.074005291 2
0.1 0.1 0.1 -1
0.1 0.1 0.1 -1
0.1 0.1 0.1 -1
2.4433548 0.68633598 -0.40479639 155
3.1531794 0.88572496 -0.40367228 12
3.0402329 0.85399842 -0.27671361 12
115.36523 32.405979 -6.3809147 -1
4.0621276 1.1410476 -0.074363478 3
3.9806902 1.1181719 1.1055303 6
4.0433817 1.1357819 0.96807301 9
4.0921698 1.1494864 0.82566881 6
4.1175809 1.1566244 0.67575639 2
4.1282353 1.1596173 0.52474684 2
4.1144743 1.1557518 0.37341332 5
4.09552 1.1504275 0.22546075 5
4.1006489 1.1518682 0.074005291 4
0.1 0.1 0.1 -1
0.1 0.1 0.1 -1
0.1 0.1 0.1 -1
2.4264679 0.67337519 -0.40164623 131
3.0890021 0.85723668 -0.39510953 11
3.0141037 0.83645147 -0.27409488 6
3.0694835 0.85182011 -0.16962598 6
4.0753264 1.1309541 -0.074539691 9
4.0214186 1.115994 1.1158623 6
4.0938778 1.1361023 0.9793036 7
4.1241379 1.1444998 0.83138937 2
4.1211944 1.143683 0.67575639 2
4.1222935 1.143988 0.52353209 2
4.1084857 1.1401561 0.37254289 2
4.0798693 1.1322148 0.22440225 5
4.0946131 1.1363064 0.073831566 4
0.1 0.1 0.1 -1
0.1 0.1 0.1 -1
0.1 0.1 0.1 -1
2.4095237 0.66052735 -0.39849606 131
3.0151057 0.82653672 -0.38532352 12
3.026324 0.82961196 -0.27496779 16
3.0721445 0.84217286 -0.16962598 8
4.0692167 1.1155021 -0.074363478 11
4.0901232 1.1212333 1.1339434 10
4.1350179 1.1335404 0.98828804 1
4.1277127 1.1315378 0.83138937 2
4.1247668 1.1307303 0.67575639 2
4.1258674 1.1310319 0.52353209 2
115.29105 31.604956 10.445127 -1
4.0930367 1.1220319 0.22493149 4
4.0981627 1.1234372 0.073831566 3
0.1 0.1 0.1 -1
0.1 0.1 0.1 -1
0.1 0.1 0.1 -1
2.402055 0.65037352 -0.39692098 72
2.9985275 0.81187272 -0.38287702 8
3.0096841 0.81489342 -0.27322197 9
3.0554976 0.82729775 -0.1685625 4
3.3585308 0.90934616 -0.061323434 20
4.1216002 1.1159526 1.1416924 1
112.86978 30.560297 26.95331 -1
4.1217718 1.1159991 0.8294825 3
4.1282988 1.1177664 0.67575639 2
4.1198192 1.1154704 0.52231741 2
4.1059527 1.1117159 0.37167245 1
4.0869026 1.106558 0.22440225 4
4.092021 1.1079438 0.073657848 4
0.1 0.1 0.1 -1
0.1 0.1 0.1 -1
0.1 0.1 0.1 -1
2.3754663 0.63517135 -0.39219573 67
3.0010633 0.80244857 -0.38287702 6
3.0026057 0.80286092 -0.27234906 8
3.0773754 0.82285351 -0.16962598 14
3.351712 0.89620781 -0.061147217 7
111.99328 29.945667 30.996174 -1
112.96523 30.205557 26.95331 -1
4.1252575 1.1030447 0.8294825 3
4.1222477 1.10224 0.67419577 2
4.1137142 1.0999582 0.52110273 2
4.1286731 1.1039579 0.37341332 10
4.0903587 1.0937132 0.22440225 4
4.0954814 1.0950829 0.073657848 4
0.1 0.1 0.1 -1
0.1 0.1 0.1 -1
0.1 0.1 0.1 -1
0.1 0.1 0.1 -1
3.0035696 0.79301649 -0.38287702 8
3.0147448 0.79596704 -0.27322197 5
3.0606353 0.8080833 -0.1685625 4
3.3351765 0.88056892 -0.060794782 14
4.1191897 1.0875678 1.1391094 4
4.079566 1.0771061 0.97256523 1
4.1287026 1.0900794 0.8294825 2
4.1256905 1.0892841 0.67419577 3
4.1267467 1.089563 0.52231741 3
4.1128569 1.0858957 0.37167245 7
4.0841193 1.0783083 0.22387299 4
4.0892344 1.0796587 0.073484123 4
0.1 0.1 0.1 -1
0.1 0.1 0.1 -1
0.1 0.1 0.1 -1
2.3602984 0.6152516 -0.38904557 155
2.9868381 0.77856976 -0.38043052 12
3.0268703 0.7890048 -0.27409488 5
115.95554 30.225767 -6.3809147 -1
3.2314999 0.84234494 -0.058856398 4
4.1225863 1.0746217 1.1391094 4
4.1583648 1.083948 0.99053413 17
4.1416059 1.0795795 0.83138937 3
4.1290922 1.0763175 0.67419577 3
4.120544 1.0740894 0.52110273 3
4.1162477 1.0729694 0.37167245 4
4.0874867 1.0654725 0.22387299 4
4.0926061 1.0668068 0.073484123 5
0.1 0.1 0.1 -1
0.1 0.1 0.1 -1
0.1 0.1 0.1 -1
2.3717833 0.6102944 -0.39062065 88
2.5375147 0.6529395 -0.32293782 26
3.0196865 0.77700925 -0.27322197 12
3.0559814 0.78634846 -0.16803075 4
3.224447 0.82969719 -0.05868018 10
4.1259422 1.0616649 1.1391094 4
4.1428757 1.0660222 0.9860419 10
4.1259637 1.0616704 0.82757568 3
4.1228871 1.0608789 0.67263514 3
4.1142855 1.0586655 0.51988804 3
4.1099505 1.0575501 0.37080204 4
4.0811429 1.0501375 0.22334374 4
4.0959373 1.0539442 0.073484123 3
0.1 0.1 0.1 -1
0.1 0.1 0.1 -1
0.1 0.1 0.1 -1
2.3354037 0.59311694 -0.38432029 62
2.4818363 0.63030612 -0.31559831 40
3.0317678 0.76997095 -0.27409488 15
116.14317 29.496605 -6.3809147 -1
3.2270377 0.81956321 -0.05868018 2
4.1198936 1.0463197 1.1365263 4
4.1367593 1.050603 0.98379582 8
4.1197639 1.0462867 0.82566881 3
4.1166263 1.0454898 0.67107451 3
4.1079702 1.0432916 0.51867336 2
4.1132526 1.0446332 0.37080204 4
4.0844221 1.0373111 0.22334374 5
4.0895371 1.0386101 0.073310405 5
0.1 0.1 0.1 -1
0.1 0.1 0.1 -1
0.1 0.1 0.1 -1
2.3468344 0.58817792 -0.38589537 136
2.4452958 0.6128549 -0.31070533 41
3.0438349 0.76286441 -0.27496779 73
3.0511754 0.76470411 -0.16749902 4
3.239295 0.8118518 -0.058856398 14
4.1137896 1.0310229 1.1339434 4
4.1305876 1.0352329 0.98154968 6
4.1230307 1.033339 0.82566881 3
4.1198902 1.0325519 0.67107451 3
4.1112275 1.0303808 0.51867336 2
4.097188 1.0268621 0.36906117 3
4.0876608 1.0244744 0.22334374 4
4.0927801 1.0257574 0.073310405 4
0.1 0.1 0.1 -1
0.1 0.1 0.1 -1
0.1 0.1 0.1 -1
2.3390841 0.57843161 -0.38432029 129
2.4375744 0.6027872 -0.30948207 41
3.036546 0.75090671 -0.27409488 86
116.3262 28.766279 -6.3809147 -1
3.2224174 0.79687083 -0.058503967 14
4.1263866 1.0204132 1.1365263 4
4.1432791 1.0245905 0.98379582 5
4.1357861 1.0227376 0.82757568 3
4.1231136 1.0196038 0.67107451 3
4.1048088 1.0150772 0.51745868 3
4.1003938 1.0139854 0.36906117 3
4.0811648 1.0092304 0.2228145 4
4.0862761 1.0104942 0.07313668 4
0.1 0.1 0.1 -1
0.1 0.1 0.1 -1
0.1 0.1 0.1 -1
2.331296 0.56873977 -0.38274521 129
2.4298139 0.59277409 -0.30825883 53
3.0582459 0.74608552 -0.2758407 97
