# .PCD v0.7 - Point Cloud Data file format
VERSION 0.7
FIELDS x y z intensity
SIZE 4 4 4 4
TYPE F F F F
COUNT 1 1 1 1
WIDTH 1395
HEIGHT 1
VIEWPOINT 0 0 0 1 0 0 0
POINTS 1395
DATA ascii
-0.12007085 9.2961769 0.49273229 4
-0.12035035 9.3178167 0.16190828 4
-0.033376973 3.4769108 -0.93272567 38
-0.03319994 3.4584694 -0.80024242 43
-0.032880977 3.4252424 -0.66838068 25
-0.032798529 3.4166536 -0.5449788 29
-0.032677867 3.4040842 -0.4195745 23
-0.032895073 3.4267111 -0.30028227 21
-0.041601431 4.3336601 -0.23077641 27
-0.089642264 9.3381195 -0.16458645 19
-0.087355517 9.0999069 2.4331996 10
-0.088020109 9.169138 2.1135888 8
-0.088199563 9.1878319 1.7848176 3
-0.088367999 9.2053776 1.454515 3
-0.08889702 9.2604866 1.1333073 3
-0.089029022 9.2742376 0.81036782 3
-0.089242958 9.296524 0.49273229 4
-0.089450702 9.3181639 0.16190828 4
-0.022391418 3.4673402 -0.93013471 40
-0.022334695 3.4585564 -0.80024242 40
-0.022120116 3.425329 -0.66838068 27
-0.02206465 3.4167399 -0.5449788 29
-0.022047568 3.4140947 -0.42079777 24
-0.022129601 3.4267974 -0.30028227 23
-0.027793195 4.3038125 -0.22918119 34
-0.060305305 9.3383551 -0.16458645 24
-0.058766935 9.1001368 2.4331996 11
-0.059151102 9.1596251 2.1113427 10
-0.059334747 9.1880636 1.7848176 3
-0.059511848 9.2154875 1.4560755 3
-0.059803952 9.2607203 1.1333073 3
-0.059892755 9.2744713 0.81036782 3
-0.059972193 9.2867727 0.49220303 4
-0.060111865 9.3084011 0.16173457 5
-0.011530383 3.477052 -0.93272567 39
-0.011469226 3.4586096 -0.80024242 43
-0.011391584 3.4351964 -0.67029583 27
-0.011363301 3.4266675 -0.54655385 26
-0.01128887 3.4042222 -0.4195745 26
-0.011330872 3.4168882 -0.29940936 27
-0.030696938 9.256834 -0.49292567 1
-0.030967748 9.3384981 -0.16458645 29
-0.03017777 9.100276 2.4331996 10
-0.03040736 9.1695099 2.1135888 10
-0.030469351 9.1882038 1.7848176 3
-0.030494783 9.1958742 1.4529543 3
-0.03067738 9.2509365 1.1320927 3
-0.03072286 9.2646513 0.80949742 3
-0.030796688 9.2869148 0.49220303 4
-0.030868413 9.3085442 0.16173457 4
-0.00061023486 3.496388 -0.93790746 40
-0.00060704537 3.4781139 -0.8047508 47
-0.00060127117 3.44503 -0.67221093 27
-0.00059806957 3.4266863 -0.54655385 27
-0.0005976166 3.4240909 -0.422021 26
-0.00059810147 3.4268689 -0.30028227 25
-0.0016330598 9.3567438 -0.49824309 5
-0.0016281393 9.3285513 -0.16441023 4
-0.0015866205 9.0906658 2.4306166 9
-0.0015986895 9.1598158 2.1113427 10
-0.001603653 9.1882544 1.7848176 3
-0.0016049916 9.1959238 1.4529543 3
-0.0016146018 9.2509871 1.1320927 2
-0.0016187343 9.2746649 0.81036782 3
-0.0016208814 9.2869654 0.49220303 5
-0.0016246563 9.3085947 0.16173457 5
0.010373977 3.4963727 -0.93790746 41
0.010319756 3.4780986 -0.8047508 41
0.010221595 3.445015 -0.67221093 27
0.010225768 3.4464214 -0.54970402 26
0.010159467 3.4240758 -0.422021 27
0.010138152 3.4168921 -0.29940936 24
0.027732348 9.3467169 -0.49771136 5
0.027678328 9.3285103 -0.16441023 5
0.026972508 9.0906258 2.4306166 9
0.027206594 9.1695204 2.1135888 10
0.02726206 9.1882143 1.7848176 3
0.027314123 9.205761 1.454515 3
0.027448192 9.250947 1.1320927 3
0.027488885 9.2646618 0.80949742 3
0.027554942 9.2869253 0.49220303 4
0.027589452 9.2985554 0.16156085 5
0.021240085 3.4770062 -0.93272567 43
0.021365484 3.4975338 -0.80925924 44
0.021104315 3.4547806 -0.67412609 30
0.020992629 3.4364974 -0.54812896 26
0.020916451 3.424027 -0.422021 24
0.020994274 3.4367666 -0.30115521 19
0.05709574 9.3465834 -0.49771136 4
0.056984521 9.3283768 -0.16441023 4
0.055531371 9.0904961 2.4306166 8
0.056072835 9.1791334 2.1158347 11
0.056067541 9.1782675 1.7829107 3
0.056234695 9.2056303 1.454515 3
0.05645008 9.2408886 1.130878 3
0.056594495 9.2645302 0.80949742 3
0.056730494 9.2867928 0.49220303 5
0.056801543 9.2984228 0.16156085 4
0.032431327 3.5058966 -0.94049835 44
0.032353189 3.4974494 -0.80925924 45
0.031957708 3.4546971 -0.67412609 28
0.031788584 3.4364145 -0.54812896 29
0.031673227 3.4239445 -0.422021 26
0.031883221 3.446645 -0.30202812 36
0.086458571 9.3463583 -0.49771136 4
0.086382642 9.33815 -0.16458645 4
0.084179051 9.0999374 2.4331996 9
0.084729336 9.1594238 2.1113427 6
0.084810786 9.1682291 1.7810038 3
0.085063338 9.1955309 1.4529543 3
0.085572682 9.2505913 1.1320927 3
0.0857917 9.2742682 0.81036782 3
0.085813113 9.2765827 0.4916738 5
0.086013071 9.2981987 0.16156085 3
0.043564934 3.5154352 -0.94308925 46
0.043340571 3.4973307 -0.80925924 47
0.042932406 3.4643939 -0.67604119 30
0.042828958 3.4560463 -0.55127913 32
0.042675663 3.4436762 -0.4244675 26
0.042464115 3.4266057 -0.30028227 22
0.11483062 9.26616 -0.49345741 6
0.11559494 9.3278351 -0.16441023 5
0.11264717 9.0899677 2.4306166 10
0.11350405 9.1591129 2.1113427 7
0.1137348 9.1777334 1.7829107 4
0.11382909 9.1853418 1.4513936 3
0.1145108 9.2403517 1.130878 3
0.11480375 9.2639914 0.80949742 3
0.11507963 9.286253 0.49220303 4
0.11522375 9.297883 0.16156085 4
0.054758787 3.5249383 -0.94568014 53
0.054478858 3.5069187 -0.81151342 41
0.053968344 3.4740555 -0.67795634 31
0.05368622 3.4558949 -0.55127913 30
0.053339899 3.4336014 -0.42324427 27
0.053228889 3.4264555 -0.30028227 19
0.14518137 9.3456306 -0.49771136 3
0.14489858 9.327426 -0.16441023 6
0.14120354 9.0895691 2.4306166 10
0.14227764 9.1587114 2.1113427 8
0.1425669 9.177331 1.7829107 3
0.14268509 9.1849384 1.4513936 4
0.14353961 9.2399464 1.130878 3
0.14375208 9.253624 0.80862695 3
0.14425264 9.2858458 0.49220303 3
0.14443329 9.2974749 0.16156085 4
0.066193148 3.5440626 -0.95086199 46
0.065677814 3.5164711 -0.81376761 51
0.065248691 3.4934952 -0.6817866 31
0.064727359 3.4655826 -0.55285418 27
0.064311936 3.4433401 -0.4244675 26
0.06417916 3.4362314 -0.30115521 38
0.17491372 9.3650961 -0.49877486 8
0.17420079 9.3269243 -0.16441023 3
0.16975853 9.0890808 2.4306166 10
0.17086786 9.1484766 2.1090965 8
0.17139758 9.1768379 1.7829107 3
0.17153966 9.1844454 1.4513936 4
0.172567 9.2394495 1.130878 3
0.17282245 9.2531271 0.80862695 3
0.17342421 9.285347 0.49220303 3
0.17364141 9.2969751 0.16156085 4
0.077748202 3.5631497 -0.95604378 60
0.077149861 3.535728 -0.81827605 53
0.0764376 3.5030856 -0.68370175 31
0.075829893 3.475235 -0.55442929 32
0.07534568 3.4530437 -0.42569077 30
0.074974068 3.436013 -0.30115521 21
0.20389844 9.3445339 -0.49771136 6
0.20328316 9.3163357 -0.16423403 6
0.19831182 9.0885019 2.4306166 10
0.19960776 9.1478939 2.1090965 9
0.20022658 9.1762543 1.7829107 3
0.20039256 9.1838608 1.4513936 4
0.20159268 9.238862 1.130878 3
0.20210843 9.2624979 0.80949742 3
0.20237625 9.2747726 0.4916738 4
0.20284781 9.2963839 0.16156085 4
0.089905903 3.6015098 -0.96640742 62
0.08850041 3.5452077 -0.82053024 60
0.087197535 3.4930165 -0.6817866 32
0.08724016 3.4947238 -0.55757946 31
0.086441033 3.4627118 -0.42691401 27
0.087011248 3.485554 -0.30551976 70
0.23325412 9.3438473 -0.49771136 6
0.23255023 9.3156509 -0.16423403 18
0.22686318 9.0878344 2.4306166 10
0.22834569 9.1472216 2.1090965 9
0.22905359 9.17558 1.7829107 3
0.22948997 9.1930599 1.4529543 3
0.23061639 9.238183 1.130878 3
0.23095776 9.2518587 0.80862695 3
0.23176196 9.2840738 0.49220303 5
0.23205222 9.295701 0.16156085 4
0.10149129 3.6108644 -0.96899831 72
0.09991128 3.554651 -0.82278442 69
0.098722242 3.5123472 -0.68561685 34
0.098496161 3.5043037 -0.55915451 35
0.09787672 3.482265 -0.42936051 31
0.097960994 3.4852633 -0.30551976 24
0.23763733 8.4546776 -0.45038623 8
0.26041043 9.2649012 -0.16335294 10
0.25541228 9.0870771 2.4306166 10
0.25708136 9.1464596 2.1090965 9
0.25760254 9.1650019 1.7810038 3
0.25836962 9.1922941 1.4529543 3
0.25991669 9.2473354 1.1320927 3
0.26002213 9.2510872 0.80862695 3
0.260647 9.2733173 0.4916738 11
0.26125434 9.2949257 0.16156085 4
0.11373972 3.6394892 -0.976771 50
0.11138236 3.5640574 -0.82503867 86
0.11098243 3.5512602 -0.69327736 39
0.11012168 3.5237176 -0.56230468 37
0.10943611 3.5017805 -0.43180701 32
0.10828743 3.4650245 -0.30377394 31
0.24797736 7.9348788 -0.4227356 16
3.7477753 119.92282 -2.1146011 -1
0.2836571 9.0765734 2.4280336 10
0.28581449 9.145607 2.1090965 10
0.28670055 9.1739597 1.7829107 3
0.28724676 9.1914368 1.4529543 3
0.28865668 9.2365522 1.130878 3
0.28939512 9.2601814 0.80949742 3
3.743104 119.77335 6.351007 -1
0.29045385 9.2940588 0.16156085 6
0.12486812 3.6487887 -0.97936195 58
0.12295627 3.592922 -0.8318013 51
0.12151872 3.5509152 -0.69327736 45
0.12057626 3.5233755 -0.56230468 35
0.1198256 3.5014403 -0.43180701 34
0.11959001 3.494556 -0.30639267 61
0.26434729 7.7245278 -0.411569 11
0.27117801 7.92413 -0.13973989 1
0.31058654 9.0756922 2.4280336 11
0.31294876 9.1447182 2.1090965 10
0.3135832 9.1632576 1.7810038 3
0.31417918 9.1806726 1.4513936 3
0.31606075 9.2356548 1.130878 3
0.31652862 9.2493258 0.80862695 3
0.31387386 9.171751 0.48638129 44
0.31802857 9.2931566 0.16156085 28
0.1 0.1 0.1 -1
0.13470244 3.6217489 -0.83856386 86
0.13314833 3.5799634 -0.69902277 51
0.13213088 3.5526073 -0.56702995 46
0.13132069 3.5308235 -0.43547675 38
0.13069853 3.5140958 -0.30813852 39
0.27538863 7.4043832 -0.39455324 5
0.27945209 7.5136375 -0.13251501 4
0.33751327 9.0747309 2.4280336 10
0.34008026 9.1437492 2.1090965 10
0.34076971 9.1622868 1.7810038 4
0.34105024 9.1698294 1.449833 3
0.34346208 9.2346764 1.130878 2
0.34397048 9.2483463 0.80862695 3
0.33922982 9.1208839 0.48373502 42
0.3437424 9.2422142 0.16069223 121
0.17395158 4.2751918 -1.1477708 1
0.17427771 4.2832069 -0.99184972 1
0.14604294 3.5892837 -0.70093793 77
0.14533393 3.5718584 -0.57018012 66
0.14445175 3.5501771 -0.43792325 47
0.14296421 3.513618 -0.30813852 51
0.29839122 7.3335333 -0.39083102 7
0.301613 7.4127145 -0.13075283 2
0.36918792 9.0734968 2.4280336 10
0.37199584 9.1425066 2.1090965 10
0.37314907 9.1708498 1.7829107 3
0.37385997 9.1883211 1.4529543 3
0.37569502 9.2334213 1.130878 3
0.37625113 9.2470894 0.80862695 3
0.37106559 9.1196442 0.48373502 69
0.30933759 7.602561 0.13220194 69
0.1 0.1 0.1 -1
0.19114624 4.3605046 -1.0098834 7
0.1 0.1 0.1 -1
0.15914935 3.6305785 -0.57963061 104
0.15690817 3.5794518 -0.44159299 60
0.15531065 3.5430083 -0.31075725 45
0.3209914 7.3225837 -0.39029929 6
0.32533705 7.4217191 -0.13092905 18
0.39769131 9.0722923 2.4280336 10
0.40071598 9.1412935 2.1090965 10
0.40152836 9.1598253 1.7810038 4
0.40229148 9.1772337 1.4513936 3
0.40470076 9.2321959 1.130878 3
0.40573609 9.2558136 0.80949742 2
0.3997139 9.118434 0.48373502 65
0.33322018 7.6015515 0.13220194 79
0.14913413 3.174155 -0.85240757 68
0.1 0.1 0.1 -1
0.1 0.1 0.1 -1
0.28920084 6.1553202 -0.98285192 1
0.16954994 3.6086831 -0.44526273 125
0.16831067 3.5823064 -0.31424889 79
0.32384208 6.8926206 -0.36743435 7
0.3481822 7.4106727 -0.13075283 20
0.42619073 9.0709982 2.4280336 10
0.42943218 9.1399889 2.1090965 10
0.43076348 9.1683245 1.7829107 3
0.43158415 9.185791 1.4529543 3
0.43370253 9.2308788 1.130878 3
0.4343445 9.2445421 0.80862695 2
0.42835829 9.1171331 0.48373502 51
0.3500607 7.450655 0.12959611 80
0.15813808 3.1543779 -0.84722579 48
0.1 0.1 0.1 -1
0.15774971 3.1466312 -0.614757 62
0.1 0.1 0.1 -1
0.16299626 3.2512844 -0.40122578 1
0.18305549 3.6514053 -0.32035929 1
0.34399429 6.861649 -0.36583912 6
0.36044806 7.1898527 -0.12687607 24
0.45516968 9.0792637 2.4306166 10
0.45814413 9.1385946 2.1090965 9
0.45907295 9.1571217 1.7810038 3
0.45994541 9.1745253 1.4513936 4
0.46269998 9.2294703 1.130878 2
0.4638837 9.2530823 0.80949742 3
0.45749846 9.1257153 0.48426428 57
0.3619515 7.219842 0.12560053 50
0.16701923 3.1345761 -0.842044 54
0.16743651 3.1424074 -0.72810787 37
0.1665899 3.1265182 -0.61092675 30
0.16656211 3.1259966 -0.49930137 50
0.1 0.1 0.1 -1
0.35512882 6.6649704 -0.5848521 8
0.35439131 6.6511288 -0.35467252 6
0.36281815 6.8092818 -0.12017983 9
0.48317671 9.0681419 2.4280336 9
0.48685157 9.1371107 2.1090965 9
0.48836088 9.1654367 1.7829107 4
0.48876572 9.1730347 1.4513936 3
0.4916929 9.2279711 1.130878 3
0.49295077 9.2515793 0.80949742 3
0.48510277 9.1042891 0.48320577 53
0.37718359 7.0788884 0.12316843 107
0.17468914 3.095463 -0.83168036 42
0.17511207 3.1029572 -0.71909106 50
0.17475227 3.0965815 -0.60518134 36
0.17526905 3.1057391 -0.49615121 16
0.17559238 3.1114681 -0.38410029 30
0.37494308 6.64393 -0.58310628 136
0.37134615 6.5801926 -0.35095033 4
0.37744805 6.6883178 -0.11806523 10
0.51220703 9.0762243 2.4306166 10
0.51555419 9.1355362 2.1090965 11
0.51715249 9.1638575 1.7829107 3
0.51758116 9.1714535 1.4513936 3
0.52068096 9.2263813 1.130878 3
0.52201301 9.2499847 0.80949742 3
0.51370227 9.1027203 0.48320577 50
0.38646343 6.8480687 0.11917283 85
0.18441296 3.0948989 -0.83168036 44
0.18427993 3.0926664 -0.71683687 45
0.183312 3.0764222 -0.60135108 26
0.18385038 3.0854576 -0.49300104 61
0.18359545 3.0811791 -0.38043052 40
0.3958137 6.6427193 -0.58310628 12
0.38964069 6.5391212 -0.34882334 9
0.39488986 6.6272144 -0.11700793 6
0.54014361 9.0649271 2.4280336 10
0.54425174 9.1338711 2.1090965 11
0.54535508 9.1523886 1.7810038 4
0.54639155 9.1697826 1.4513936 3
0.54966384 9.2247 1.130878 3
0.5504775 9.2383547 0.80862695 3
0.54229677 9.1010618 0.48320577 41
0.40143344 6.7370319 0.1172619 45
0.19292538 3.0750251 -0.82649857 37
0.1927748 3.0726252 -0.71232843 40
0.19236137 3.0660355 -0.59943599 31
0.19292437 3.0750091 -0.49142596 19
0.19203141 3.0607765 -0.37798405 25
0.41917554 6.6812119 -0.58659792 82
0.410182 6.5378647 -0.34882334 7
0.41570789 6.6259413 -0.11700793 6
0.56922412 9.0728264 2.4306166 11
0.57294393 9.1321163 2.1090965 9
0.57410544 9.15063 1.7810038 3
0.57519656 9.1680212 1.4513936 4
0.57864136 9.2229271 1.130878 3
0.57949787 9.2365799 0.80862695 3
0.57088584 9.0993128 0.48320577 30
0.41696182 6.6459279 0.11569841 51
0.20067969 3.045491 -0.81872582 52
0.20178619 3.062283 -0.71007425 35
0.20070195 3.0458288 -0.59560573 26
0.19933729 3.0251188 -0.48355055 27
0.20099358 3.0502546 -0.37676078 30
0.44016308 6.679862 -0.58659792 19
0.43465877 6.5963292 -0.3520138 4
0.43454957 6.5946722 -0.11647928 12
0.59708917 9.0613537 2.4280336 11
0.60227114 9.1399946 2.1113427 9
0.60285014 9.1487808 1.7810038 4
0.60399586 9.1661682 1.4513936 4
0.60761315 9.2210636 1.130878 4
0.62030292 9.4136419 0.82429469 2
0.59815615 9.0775461 0.48214728 27
0.43652371 6.6246314 0.11535097 17
0.19095162 2.7654135 -0.74358964 41
0.21073449 3.0519145 -0.70782006 45
0.21026969 3.0451832 -0.59560573 23
0.20883998 3.0244775 -0.48355055 25
0.20920786 3.0298054 -0.37431428 23
0.46183252 6.6883845 -0.58747089 26
0.45950687 6.6547036 -0.35520425 7
0.45526516 6.5932741 -0.11647928 3
0.62621874 9.0690708 2.4306166 10
0.63098228 9.1380577 2.1113427 8
0.63158882 9.146842 1.7810038 4
0.63415003 9.1839342 1.454515 6
0.64820278 9.3874502 1.1515278 2
0.64987361 9.4116468 0.82429469 2
0.62667108 9.0756226 0.48214728 33
0.45733342 6.6232271 0.11535097 17
0.18294396 2.5335972 -0.68140793 22
0.21961965 3.0415201 -0.70556587 46
0.21771477 3.0151393 -0.58986032 21
0.2169182 3.0041075 -0.48040038 23
0.21801044 3.0192342 -0.37309104 24
0.48284239 6.6869006 -0.58747089 16
0.47897258 6.6333075 -0.35414079 5
0.47525617 6.5818391 -0.11630306 3
0.65401119 9.0574236 2.4280336 10
0.65898538 9.1263113 2.1090965 12
0.67163306 9.3014688 1.8115135 4
0.67438096 9.3395252 1.4794852 2
0.6769762 9.3754673 1.150313 2
0.67943794 9.4095592 0.82429469 3
0.65517986 9.0736084 0.48214728 21
0.47741851 6.6117854 0.11517724 37
0.1 0.1 0.1 -1
0.22844158 3.0311 -0.70331162 11
0.22718602 3.0144405 -0.58986032 24
0.22635479 3.0034113 -0.48040038 16
0.22674868 3.0086374 -0.37186778 22
0.50384748 6.6853509 -0.58747089 31
0.49455607 6.562067 -0.35041857 4
0.49818549 6.6102242 -0.11683171 9
0.68827087 9.132391 2.4486978 16
0.70010275 9.2893829 2.1472802 9
0.7023266 9.3188906 1.8153273 4
0.7037186 9.3373604 1.4794852 13
0.70568079 9.3633957 1.1490984 3
0.70749819 9.3875103 0.82255381 2
0.68443263 9.0814629 0.48267654 25
0.49969047 6.6301932 0.11552469 10
0.19129811 2.4361088 -0.65549886 42
0.23643751 3.010942 -0.69880325 36
0.2351183 2.9941423 -0.58603007 22
0.23501608 2.9928405 -0.4788253 30
0.23542248 2.9980159 -0.37064454 22
9.3583527 119.17506 -10.474963 -1
0.51751417 6.5903463 -0.3520138 3
9.3927536 119.61314 -2.1146011 -1
0.72527677 9.236124 2.4771109 10
0.73004556 9.2968531 2.1495264 28
0.73006225 9.2970657 1.8115135 5
0.73227596 9.3252563 1.4779245 9
0.73509324 9.3611326 1.1490984 3
0.73854613 9.4051046 0.82429469 17
0.71374124 9.0892239 0.48320577 17
0.51738644 6.5887194 0.1148298 14
0.19973679 2.4451222 -0.65808976 40
0.24510227 3.000474 -0.69654906 35
0.24452351 2.9933889 -0.58603007 21
0.24441718 2.9920874 -0.4788253 19
0.24403179 2.9873695 -0.36942127 25
0.56044161 6.8607707 -0.60318333 1
0.53902876 6.5986409 -0.35254556 6
0.48191178 5.8994303 -0.10432032 2
0.75507581 9.2434292 2.4796939 35
9.5203609 116.54562 26.95331 -1
0.75846696 9.2849426 1.8096067 4
0.7607643 9.3130655 1.4763639 10
0.76530653 9.3686705 1.150313 14
0.76727837 9.3928089 0.82342422 2
0.74147928 9.0769835 0.48267654 18
0.49412453 6.0489354 0.10544885 36
0.20866229 2.4540703 -0.66068065 42
0.25422546 2.9899371 -0.69429481 34
0.25361708 2.9827819 -0.58411491 20
0.25266469 2.971581 -0.47567514 19
0.25309607 2.9766545 -0.36819804 21
0.58403367 6.8688006 -0.60405624 76
0.56175369 6.6067667 -0.35307729 7
0.49893111 5.8679123 -0.10379168 11
9.8215504 115.51093 30.996174 -1
9.9067879 116.51341 26.95331 -1
0.79008442 9.2921572 1.8115135 11
10.041987 118.10349 18.727659 -1
0.79805183 9.3858614 1.1527424 17
0.7992658 9.4001389 0.82429469 7
0.77157557 9.0744753 0.48267654 15
0.51079249 6.0074134 0.10475396 33
0.21637094 2.4534028 -0.66068065 41
0.26361734 2.9891238 -0.69429481 33
0.26298648 2.9819705 -0.58411491 19
0.26199892 2.9707725 -0.47567514 24
0.2607024 2.9560716 -0.36575153 21
0.59685814 6.7676988 -0.59532708 25
10.527229 119.36692 -6.3809147 -1
0.49276868 5.5874419 -0.098857604 1
1.3884717 15.743706 4.225812 141
0.82182211 9.3185368 2.1562648 85
10.348707 117.34268 22.882277 -1
0.82088917 9.3079586 1.4763639 20
0.82491839 9.3536453 1.1490984 10
0.82791805 9.3876581 0.82342422 20
0.80095732 9.081953 0.48320577 13
0.52527088 5.9559798 0.10388536 30
0.22319871 2.4430923 -0.65808976 42
0.27212024 2.9785786 -0.69204062 46
0.27056739 2.9615812 -0.58028466 22
0.27043211 2.9601007 -0.47410005 20
0.27089086 2.9651217 -0.3669748 21
0.6181165 6.7657905 -0.59532708 23
0.49150655 5.379941 -0.28767291 11
10.915929 119.48377 -2.1146011 -1
0.85168058 9.32234 2.5029411 228
0.85020649 9.3062048 2.1540186 117
0.84755969 9.2772341 1.8096067 36
0.85012686 9.3053341 1.4763639 19
0.85520267 9.3608923 1.150313 11
0.85831249 9.3949318 0.82429469 22
0.82948512 9.0793924 0.48320577 12
0.55034715 6.0239997 0.10510141 21
0.22996385 2.4327633 -0.65549886 42
0.28147638 2.9777091 -0.69204062 42
0.27894646 2.9509451 -0.57836956 20
0.2797302 2.9592364 -0.47410005 18
0.28020471 2.9642563 -0.3669748 25
0.64030623 6.7737327 -0.59619999 22
0.4867914 5.1497149 -0.27544284 9
0.5193972 5.4946489 -0.097271651 6
0.87823588 9.2907648 2.4951921 226
0.8803556 9.3131895 2.1562648 115
0.87670076 9.2745256 1.8096067 28
0.88028574 9.3124504 1.4779245 38
0.88367242 9.348278 1.1490984 11
0.88594818 9.3723526 0.82255381 12
0.85800469 9.0767422 0.48320577 9
0.56268281 5.9525623 0.10388536 41
0.23854461 2.4416418 -0.65808976 38
0.29082972 2.97681 -0.69204062 41
0.28917009 2.9598227 -0.58028466 19
0.28806531 2.9485147 -0.47252497 17
0.28758571 2.9436057 -0.3645283 23
0.66061473 6.7617731 -0.59532708 26
0.49908337 5.1084061 -0.27331585 13
0.5347122 5.4730878 -0.096919216 11
0.90741932 9.2879601 2.4951921 228
0.90866196 9.3006792 2.1540186 125
0.9077422 9.2912655 1.8134204 41
0.90953732 9.309639 1.4779245 37
0.91303647 9.3454552 1.1490984 13
0.91635656 9.3794384 0.82342422 13
0.88748682 9.0839405 0.48373502 7
0.57068622 5.8413029 0.10197443 5
0.24718341 2.45049 -0.66068065 38
0.29920241 2.9661882 -0.68978643 42
0.29649711 2.939369 -0.5764544 18
0.29633582 2.9377699 -0.47094989 17
0.29683188 2.9426875 -0.3645283 33
0.68685311 6.8092217 -0.59969163 36
0.50911623 5.0472007 -0.27012539 6
0.54387605 5.3917971 -0.095509484 14
1.5891068 15.75385 4.233561 168
0.93787634 9.2977791 2.1540186 127
0.93594182 9.2786007 1.8115135 35
0.93877983 9.306736 1.4779245 36
0.94239157 9.3425407 1.1490984 12
0.94581836 9.3765135 0.82342422 13
0.91602045 9.0811071 0.48373502 6
0.58100665 5.7598972 0.10058466 15
0.2538811 2.4400947 -0.65808976 35
0.30751124 2.9555433 -0.68753219 35
0.30674565 2.9481852 -0.57836956 17
0.3055636 2.9368243 -0.47094989 16
0.30402091 2.9219973 -0.3620818 24
12.37103 118.90009 -10.474963 -1
0.52290314 5.0257115 -0.26906192 7
0.53804857 5.171277 -0.091632716 8
1.6385911 15.74878 4.233561 177
0.96808994 9.3044786 2.1562648 130
0.96610266 9.2853785 1.8134204 26
0.96801317 9.3037405 1.4779245 38
0.97173733 9.3395338 1.1490984 13
0.97527081 9.3734951 0.82342422 14
0.94454503 9.0781841 0.48373502 7
0.58875185 5.6585951 0.098847441 6
0.2594862 2.420078 -0.65290797 54
0.31783348 2.9642498 -0.68978643 36
0.31600612 2.947207 -0.57836956 16
0.3158412 2.9456687 -0.47252497 28
0.31319913 2.9210277 -0.3620818 26
0.61917049 5.7746463 -0.50890863 17
0.53443086 4.9843283 -0.26693493 8
0.54789627 5.1099124 -0.090575419 1
1.6890891 15.75316 4.2361441 168
0.997316 9.3013916 2.1562648 128
0.9952687 9.2822971 1.8134204 47
0.99723691 9.3006535 1.4779245 22
1.0010735 9.3364353 1.1490984 14
1.0057757 9.380291 0.82429469 15
0.97412491 9.0851011 0.48426428 5
0.60119617 5.6070104 0.09797883 6
0.25542921 2.3136487 -0.62440801 64
0.32500616 2.9438691 -0.685278 82
0.32418644 2.936444 -0.5764544 20
0.32292643 2.9250309 -0.46937481 15
0.32346335 2.9298944 -0.36330503 23
0.65261316 5.9112959 -0.52112943 17
0.54460794 4.9329972 -0.26427624 13
13.166073 119.2568 -2.1146011 -1
1.7385707 15.747776 4.2361441 171
1.0265322 9.2982121 2.1562648 131
1.0244249 9.2791252 1.8134204 36
1.0275347 9.3072929 1.4794852 39
1.0303998 9.3332443 1.1490984 12
1.0330534 9.3572807 0.82255381 14
1.0015659 9.0720711 0.48373502 4
0.6144194 5.5653415 0.097283952 3
0.26051641 2.2936413 -0.61922622 31
0.33535251 2.9525139 -0.68753219 146
0.3345176 2.9451632 -0.57836956 19
0.33322853 2.933814 -0.47094989 16
0.33154619 2.9190023 -0.3620818 25
0.63520461 5.5924745 -0.49319619 14
0.54432517 4.7923532 -0.25683182 7
0.54614007 4.808332 -0.085288912 17
1.7891254 15.751836 4.2387271 166
1.056838 9.3046236 2.1585109 133
1.0535711 9.2758608 1.8134204 40
1.0556545 9.2942047 1.4779245 41
1.0608361 9.3398237 1.150313 16
1.0646936 9.373786 0.82429469 14
1.0311887 9.0788012 0.48426428 4
0.62738681 5.5236454 0.096589066 13
0.26660064 2.2832181 -0.61663526 85
0.34688628 2.9707994 -0.69204062 10
0.34035352 2.9148519 -0.57262415 20
0.34129843 2.9229441 -0.46937481 16
0.34071484 2.9179463 -0.3620818 27
0.64930469 5.5607677 -0.49057746 14
0.55706179 4.7707825 -0.25576833 9
0.5566048 4.7668686 -0.08458405 2
1.0845625 9.2883978 2.5003581 225
1.0860641 9.3012581 2.1585109 122
1.0838453 9.2822552 1.8153273 43
1.087139 9.3104639 1.4810458 42
1.0890216 9.3265858 1.1490984 16
1.094137 9.3703947 0.82429469 14
1.0620217 9.0953541 0.48532277 3
0.66097111 5.6606812 0.099021159 3
0.27032134 2.2535999 -0.60886258 33
0.35157633 2.9310019 -0.68302381 69
0.1 0.1 0.1 -1
0.35047942 2.9218576 -0.46937481 16
0.34988016 2.9168615 -0.3620818 31
14.237105 118.69111 -10.474963 -1
0.56966829 4.7491794 -0.25470486 6
0.56919605 4.7452421 -0.084231615 13
1.8880612 15.740283 4.2387271 158
1.1141189 9.288125 2.1562648 121
1.1141701 9.2885513 1.8172342 43
1.1163833 9.3070021 1.4810458 50
1.1183164 9.3231182 1.1490984 17
1.1235695 9.3669119 0.82429469 17
1.0905904 9.0919733 0.48532277 2
0.66446185 5.5394487 0.096936509 9
0.27503905 2.2335672 -0.60368079 46
0.35959187 2.9202135 -0.68076962 29
0.27229467 2.2112806 -0.4347347 1
0.35845008 2.9109409 -0.46779972 49
0.35904199 2.9157479 -0.3620818 30
0.66718608 5.4181581 -0.47835666 40
0.58580589 4.757277 -0.2552366 5
0.58287883 4.7335067 -0.084055394 5
1.9375013 15.734274 4.2387271 163
1.1456747 9.3039217 2.1607571 125
1.1421456 9.2752619 1.8153273 38
1.1444093 9.2936459 1.4794852 43
1.1476003 9.3195591 1.1490984 17
1.1517733 9.3534479 0.82342422 20
1.1203686 9.0984135 0.48585203 2
0.67819536 5.5075636 0.096415341 1
0.28084409 2.22311 -0.60108984 47
0.28451014 2.2521296 -0.52522951 25
0.28662103 2.2688391 -0.44622549 24
0.3663556 2.9000032 -0.46622464 7
0.36944422 2.9244521 -0.36330503 33
0.67796165 5.3666191 -0.47399208 26
0.60074842 4.7554135 -0.2552366 5
0.59774667 4.7316523 -0.084055394 3
1.9869223 15.728109 4.2387271 159
1.1736768 9.2906094 2.1585109 132
1.1712791 9.2716284 1.8153273 47
1.1760764 9.3096037 1.4826064 44
1.1781169 9.3257561 1.150313 18
1.1824009 9.3596668 0.82429469 18
1.1501981 9.1047554 0.48638129 1
0.71429163 5.6542006 0.099021159 9
0.28906742 2.2317951 -0.60368079 52
0.28908113 2.2319009 -0.52072114 43
0.28744379 2.2192595 -0.43664983 15
0.37673286 2.9086313 -0.46779972 18
0.37990466 2.9331198 -0.3645283 27
0.68202209 5.2656698 -0.46526295 28
0.61568499 4.7535024 -0.2552366 5
0.61517721 4.7495823 -0.084407829 6
2.0350828 15.71221 4.2361441 166
1.20411 9.2965393 2.1607571 122
1.2004009 9.2679033 1.8153273 35
1.2053176 9.3058634 1.4826064 43
1.2074088 9.3220081 1.150313 19
1.2130789 9.3657856 0.82516509 17
1.1775131 9.0911942 0.48585203 2
0.73333555 5.6618443 0.099194884 3
0.29607737 2.230876 -0.60368079 42
0.29609141 2.2309818 -0.52072114 126
0.29570568 2.2280753 -0.43856499 25
0.38586873 2.9074333 -0.46779972 17
0.38650593 2.9122345 -0.3620818 28
0.69069755 5.2042494 -0.46002546 16
0.63324308 4.7713428 -0.25630009 8
0.63009542 4.7476263 -0.084407829 7
2.0869761 15.724892 4.2413096 166
1.23331 9.2927113 2.1607571 136
1.2295109 9.2640858 1.8153273 39
1.2345468 9.3020306 1.4826064 32
1.2366887 9.3181696 1.150313 17
1.2424964 9.3619289 0.82516509 19
1.2060682 9.08745 0.48585203 2
0.74980366 5.649601 0.099021159 2
0.31739312 2.3352108 -0.63218069 56
0.30834725 2.268656 -0.52973795 56
0.39523348 2.9079189 -0.57262415 23
0.39500079 2.9062068 -0.46779972 20
0.39698973 2.9208405 -0.36330503 26
0.694969 5.1132145 -0.45216924 18
0.65091926 4.7891197 -0.25736356 7
0.64500737 4.7456231 -0.084407829 12
2.1363668 15.718258 4.2413096 171
1.26381 9.2984467 2.1630032 129
1.2599308 9.2699051 1.8172342 42
1.2624336 9.2883186 1.4810458 32
1.2672933 9.3240738 1.1515278 19
1.2719015 9.3579788 0.82516509 18
1.2359561 9.0935116 0.48638129 3
0.76754868 5.6472173 0.099021159 2
0.34069803 2.4489989 -0.66327155 30
0.40810111 2.9335043 -0.685278 26
0.404367 2.9066629 -0.57262415 16
0.40412894 2.9049516 -0.46779972 22
0.40753138 2.929409 -0.3645283 24
0.71377444 5.1307392 -0.45391509 23
0.6755932 4.8562856 -0.26108578 7
0.6736899 4.8426042 -0.086169995 10
2.1857367 15.711469 4.2413096 166
1.2930157 9.2944298 2.1630032 110
1.2903994 9.2756233 1.8191409 36
1.2929685 9.2940903 1.4826064 45
1.2965795 9.3200464 1.1515278 21
1.3012942 9.3539371 0.82516509 23
1.2631421 9.0796928 0.48585203 4
0.79630768 5.7240033 0.10041093 7
0.34702921 2.4383543 -0.66068065 46
0.41731495 2.9322078 -0.685278 19
0.41487947 2.9150951 -0.57453924 20
0.4132531 2.9036674 -0.46779972 13
0.41533396 2.9182885 -0.36330503 31
0.73129326 5.1383343 -0.454788 19
0.69647437 4.8936839 -0.26321274 7
0.69030881 4.8503628 -0.086346216 7
2.2364459 15.714088 4.2438927 163
1.3208356 9.2806749 2.1607571 138
1.3181502 9.2618055 1.8172342 35
1.3221602 9.2899818 1.4826064 42
1.3244542 9.3060999 1.150313 24
1.3292704 9.3399401 0.82429469 25
1.2930676 9.0855656 0.48638129 5
0.82696539 5.8105617 0.10197443 10
0.35607874 2.44681 -0.66327155 27
0.4265247 2.9308822 -0.685278 52
0.422622 2.9040649 -0.57262415 17
0.4195289 2.8828106 -0.46464956 16
0.42592925 2.9267907 -0.3645283 30
0.75030136 5.1557274 -0.45653382 63
0.70321643 4.832181 -0.26002228 6
0.70554328 4.8481703 -0.086346216 5
2.284411 15.697425 4.2413096 168
1.3527918 9.2957649 2.1652491 127
1.348654 9.267333 1.8191409 37
1.3541839 9.3053322 1.4857277 40
1.3565425 9.321538 1.1527424 23
1.3614752 9.3554344 0.8260355 26
1.3216043 9.081459 0.48638129 8
0.85385507 5.867301 0.10301675 8
0.36561331 2.455169 -0.6658625 50
0.43624151 2.9294517 -0.685278 21
0.43369555 2.9123552 -0.57453924 19
0.43199542 2.9009383 -0.46779972 17
0.4356325 2.9253621 -0.3645283 32
0.75859052 5.0940919 -0.45129633 53
0.72217834 4.8495765 -0.26108578 7
0.73192531 4.9150295 -0.087579735 5
2.3392987 15.708874 4.2464757 163
1.3836102 9.2912283 2.1652491 127
1.3808241 9.2725191 1.8210478 40
1.3850341 9.3007898 1.4857277 45
1.3859843 9.3071709 1.1515278 27
1.3910242 9.3410149 0.82516509 21
1.3517122 9.0770264 0.48638129 15
0.87919784 5.903995 0.10371163 7
0.37477726 2.4635568 -0.6684534 35
0.44544247 2.9280667 -0.685278 41
0.44284284 2.9109783 -0.57453924 18
0.43962163 2.8898041 -0.46622464 19
0.44482061 2.923979 -0.3645283 37
0.77908504 5.1212292 -0.45391509 14
0.73440641 4.8275394 -0.26002228 6
0.72781396 4.7842045 -0.085288912 13
2.388638 15.701447 4.2464757 162
1.4127926 9.2868357 2.1652491 127
1.4099478 9.2681351 1.8210478 40
1.4142466 9.2963924 1.4857277 43
1.4152168 9.3027706 1.1515278 30
1.4203629 9.3365984 0.82516509 29
1.3832256 9.0924797 0.48743978 18
0.89924514 5.9110885 0.10388536 7
0.38251489 2.4623673 -0.6684534 40
0.45463905 2.9266529 -0.685278 44
0.45198575 2.9095728 -0.57453924 19
0.45021391 2.8981669 -0.46779972 18
0.45400438 2.9225671 -0.3645283 38
0.79822832 5.1384439 -0.45566091 67
0.75110179 4.8350759 -0.26055402 5
0.73823601 4.7522545 -0.084760264 4
2.4394367 15.703412 4.2490587 155
1.4434568 9.2919798 2.1674953 121
1.4390575 9.2636604 1.8210478 33
1.443445 9.2919044 1.4857277 38
1.445959 9.3080873 1.1527424 28
1.452746 9.351778 0.82690597 41
1.4087178 9.0683546 0.48638129 19
0.9208805 5.9279943 0.1042328 7
0.38873616 2.4516141 -0.6658625 38
0.46383116 2.9252102 -0.685278 42
0.46266127 2.9178321 -0.5764544 19
0.46240956 2.9162447 -0.47094989 21
0.46473792 2.9309289 -0.36575153 40
0.81280714 5.1260719 -0.454788 27
0.76472408 4.8228297 -0.26002228 5
0.75472778 4.7597871 -0.084936477 8
2.4887583 15.695671 4.2490587 168
1.4726412 9.2873993 2.1674953 111
1.4650782 9.2397022 1.8172342 1
1.4757229 9.3068342 1.4888489 48
1.475194 9.3034983 1.1527424 27
1.4789981 9.3274899 0.82516509 23
1.0868921 6.8546238 0.36782914 10
0.94106513 5.934947 0.10440652 12
0.39797875 2.4599152 -0.6684534 37
0.47457466 2.933356 -0.68753219 47
0.4718256 2.9163644 -0.5764544 19
0.46999177 2.9050293 -0.46937481 18
0.47394341 2.9294546 -0.36575153 43
0.82890713 5.1234932 -0.454788 46
0.77987164 4.8204036 -0.26002228 6
0.76808053 4.7475224 -0.084760264 5
2.541141 15.706848 4.2542248 159
1.5018111 9.2827272 2.1674953 137
1.497234 9.2544355 1.8210478 11
1.5049539 9.3021526 1.4888489 6
1.5044144 9.2988186 1.1527424 32
1.511476 9.3424654 0.82690597 19
1.1020418 6.8117442 0.36571214 6
0.97727096 6.0405331 0.10631746 12
0.40570483 2.4586527 -0.6684534 37
0.48378769 2.9318507 -0.68753219 42
0.48098528 2.9148676 -0.5764544 18
0.47911584 2.9035385 -0.46937481 20
0.48476008 2.9377437 -0.3669748 38
0.84662086 5.1306925 -0.45566091 40
0.83403045 5.0543923 -0.27278411 29
0.78299147 4.7450857 -0.084760264 5
2.5889001 15.689256 4.2516418 162
1.5325527 9.2875776 2.1697414 137
1.5263002 9.2496862 1.8210478 15
1.53417 9.2973785 1.4888489 9
1.5352361 9.3038397 1.1539571 32
1.5456845 9.3671589 0.82951725 19
1.1250619 6.8181009 0.3662414 15
1.0027543 6.0768933 0.10701235 5
0.41342688 2.4573662 -0.6684534 37
0.48976323 2.9111013 -0.68302381 46
0.4917686 2.9230211 -0.57836956 19
0.48987359 2.9117572 -0.47094989 18
0.49563348 2.9459934 -0.36819804 39
0.86108243 5.1181836 -0.454788 39
0.90623415 5.3865609 -0.29086336 27
0.80121237 4.7623224 -0.085112698 47
2.6445875 15.719151 4.2619739 166
1.5617229 9.2827177 2.1697414 140
1.55698 9.2545261 1.8229547 8
1.5682873 9.3217344 1.4935309 10
1.5677509 9.3185472 1.1563865 1
1.5701462 9.3327847 0.82690597 20
19.881086 118.17109 6.351007 -1
0.95382839 5.669456 0.09988977 6
0.41951254 2.4465356 -0.6658625 41
0.50055283 2.9191508 -0.685278 48
0.50094908 2.9214618 -0.57836956 21
0.4990187 2.9102039 -0.47094989 18
0.50656348 2.9542041 -0.36942127 37
0.87884098 5.1252718 -0.45566091 41
0.92315203 5.3836875 -0.29086336 22
0.8313778 4.8484735 -0.086698644 15
2.6906922 15.691723 4.2568078 166
1.5941714 9.2969742 2.1742337 111
1.5860462 9.249589 1.8229547 7
1.5925565 9.2875557 1.4888489 1
1.5986958 9.3233595 1.1576012 9
1.5994582 9.3278055 0.82690597 2
1.1763172 6.8601093 0.36888766 6
0.94966739 5.538321 0.097631395 7
0.42719647 2.4452057 -0.6658625 44
0.49463069 2.8311884 -0.66499019 50
0.51181382 2.9295421 -0.58028466 18
0.50985843 2.9183497 -0.47252497 17
0.5158419 2.9525981 -0.36942127 40
0.89665258 5.1322989 -0.45653382 46
0.93662363 5.3610868 -0.28979987 24
0.87241673 4.9935765 -0.089341901 44
1.6160537 9.2500381 2.5106902 210
1.6066004 9.1959286 2.1517725 1
1.6167862 9.2542305 1.8248615 4
1.6183264 9.2630463 1.4857277 4
1.6262698 9.3085127 1.1563865 2
1.6338979 9.3521748 0.82951725 13
20.62318 118.04385 6.351007 -1
0.95673734 5.4762144 0.096589066 8
0.4348762 2.4438515 -0.6658625 48
0.48986784 2.7528851 -0.64695656 38
0.52101469 2.9279196 -0.58028466 17
0.51902413 2.9167335 -0.47252497 20
0.52685398 2.9607344 -0.37064454 34
0.91102648 5.1196489 -0.45566091 59
0.91672248 5.1516585 -0.2786333 14
0.86357671 4.8529978 -0.086874865 25
1.6298732 9.1593142 2.487443 1
1.6371895 9.2004299 2.1540186 1
1.6458511 9.2491055 1.8248615 4
1.6491497 9.2676411 1.4872884 3
1.6537663 9.2935858 1.1551718 2
20.943594 117.69565 10.445127 -1
1.2036515 6.7640991 0.36412439 9
0.9546681 5.3648992 0.094678126 24
0.43910763 2.4234655 -0.66068065 38
0.48982894 2.7033999 -0.6356855 41
0.53021044 2.9262683 -0.58028466 18
0.52994537 2.9248054 -0.47410005 19
0.53615278 2.9590645 -0.37064454 29
0.92532974 5.1069593 -0.454788 38
0.90619713 5.0013652 -0.27065715 8
0.87168819 4.8109078 -0.086169995 7
1.6620846 9.1731606 2.492609 15
1.6782466 9.2623596 2.1697414 64
1.67665 9.2535486 1.8267684 4
1.6782566 9.2624149 1.4872884 5
21.236023 117.20309 14.576301 -1
21.313242 117.62927 10.445127 -1
1.2248956 6.7602844 0.36412439 15
0.95547426 5.2733288 0.093114637 11
0.44321531 2.4030776 -0.65549886 25
0.49655241 2.6922667 -0.63343132 38
0.54118115 2.9342403 -0.58219981 20
0.54092246 2.9328375 -0.47567514 21
0.54544628 2.9573655 -0.37064454 38
0.94498283 5.12362 -0.45653382 21
0.90741521 4.9199314 -0.2664032 6
0.89223826 4.8376436 -0.086698644 4
1.6926469 9.1773939 2.4951921 22
21.209154 114.99431 26.95331 -1
1.7092737 9.2675428 1.8305821 5
21.498598 116.56365 18.727659 -1
1.7265294 9.3611021 1.1648893 45
1.7273868 9.3657513 0.83212852 14
1.6681447 9.0445452 0.48743978 18
1.0355086 5.6144443 0.099194884 29
0.45432594 2.4206588 -0.66068065 31
0.50141358 2.6715426 -0.62892294 12
0.55220717 2.9421721 -0.58411491 18
0.55013353 2.9311237 -0.47567514 20
0.55839604 2.9751465 -0.37309104 37
0.96291208 5.1304169 -0.45740673 47
0.91365689 4.8679843 -0.26374447 6
0.90743172 4.8348165 -0.086698644 17
21.384722 113.93828 30.996174 -1
21.570312 114.92711 26.95331 -1
1.7456232 9.3007193 1.8382095 4
21.864687 116.49554 18.727659 -1
1.7522675 9.3361206 1.16246 35
1.7586393 9.3700695 0.83299893 38
1.6965507 9.0392599 0.48743978 29
1.0568306 5.6308169 0.099542327 12
0.46011695 2.4097323 -0.65808976 17
0.50980401 2.6699543 -0.62892294 33
0.56144756 2.9404228 -0.58411491 19
0.55933923 2.9293809 -0.47567514 20
0.56587851 2.9636288 -0.37186778 35
0.97715664 5.1175818 -0.45653382 56
0.91583544 4.7964292 -0.26002228 6
0.90761435 4.7533736 -0.085288912 13
2.9932263 15.676177 4.2671399 153
1.767294 9.255703 2.1719875 168
1.7748337 9.2951899 1.8382095 4
1.7821499 9.3335066 1.5013341 5
1.7815892 9.3305693 1.16246 31
1.7899359 9.3742838 0.8338694 29
1.7268128 9.0436945 0.48796904 19
1.0576379 5.5390797 0.09797883 36
0.46584377 2.3987937 -0.65549886 20
0.51633203 2.6587756 -0.62666869 14
0.57255346 2.9482794 -0.58603007 19
0.57042193 2.9373033 -0.47725022 20
0.57707828 2.9715793 -0.37309104 33
0.99322915 5.1144867 -0.45653382 60
0.92899567 4.7837257 -0.25949055 7
0.92635518 4.7701292 -0.085641347 8
3.0443013 15.676179 4.2697229 173
1.8019359 9.2788029 2.178726 137
1.8040266 9.2895679 1.8382095 4
1.8095801 9.3181648 1.4997735 5
1.8146777 9.3444147 1.1648893 29
1.8212764 9.3783932 0.8347398 48
1.7571195 9.048027 0.48849827 17
1.0578793 5.4473934 0.096415341 16
0.4733775 2.3973184 -0.65549886 17
0.5265696 2.6666985 -0.62892294 17
0.58181292 2.9464662 -0.58603007 22
0.57964689 2.9354968 -0.47725022 20
0.58256561 2.950278 -0.37064454 37
1.0092919 5.111341 -0.45653382 43
1.0097914 5.1138711 -0.2775698 19
0.93939948 4.7573862 -0.085465133 8
3.0954058 15.676016 4.272306 163
1.8348527 9.2922153 2.183218 135
1.8351033 9.2934856 1.8401164 4
1.8407584 9.3221245 1.5013341 5
1.844025 9.3386669 1.1648893 32
1.8488005 9.3628521 0.8338694 30
1.7855361 9.0424623 0.48849827 16
1.0594923 5.3655705 0.095025569 18
0.48090655 2.3958192 -0.65549886 18
0.53494471 2.665031 -0.62892294 16
0.59492981 2.9638696 -0.58986032 19
0.58886617 2.9336615 -0.47725022 20
0.59573776 2.9678948 -0.37309104 30
1.0253446 5.1081452 -0.45653382 31
1.0356783 5.159626 -0.28022853 9
0.95827603 4.7740173 -0.085817561 25
3.1465394 15.675686 4.274889 161
1.8659537 9.2959595 2.1854641 136
1.8642906 9.287674 1.8401164 4
1.8739234 9.3356638 1.5044553 5
1.8733542 9.3328276 1.1648893 29
1.8821268 9.3765326 0.83561021 20
1.8139349 9.036809 0.48849827 17
1.058634 5.2739887 0.09346208 16
0.48650029 2.3848331 -0.65290797 18
0.54331452 2.6633372 -0.62892294 20
0.60619992 2.9716029 -0.59177542 19
0.60005349 2.9414728 -0.4788253 21
0.60505873 2.9660087 -0.37309104 30
1.0433784 5.1146593 -0.45740673 19
1.0498866 5.1465626 -0.27969676 9
0.97526777 4.7807798 -0.085993782 12
3.1957703 15.665723 4.274889 165
1.8932008 9.2805033 2.183218 138
1.8954215 9.2913904 1.8420233 4
1.9052173 9.3394089 1.506016 5
1.9046488 9.3366222 1.1661041 35
1.9115747 9.370573 0.83561021 67
1.844312 9.0408497 0.48902753 18
1.0712005 5.2510438 0.093114637 9
0.49399006 2.3832929 -0.65290797 24
0.55958831 2.6997766 -0.63793975 19
0.6175245 2.9792943 -0.59369057 19
0.61129564 2.9492428 -0.48040038 21
0.61235934 2.9543748 -0.37186778 28
1.063485 5.1308651 -0.45915255 50
1.057943 5.1041269 -0.2775698 5
0.99028224 4.7776928 -0.085993782 12
3.2469306 15.665066 4.277472 171
1.9243246 9.2840519 2.1854641 145
1.9246019 9.2853899 1.8420233 4
1.9365532 9.343049 1.5075766 5
1.9359858 9.340312 1.1673187 31
1.9410037 9.364521 0.83561021 28
1.8727055 9.0350113 0.48902753 16
1.1120431 5.3651371 0.095199294 86
0.49948496 2.372278 -0.65031707 31
0.57007444 2.7075388 -0.64019394 24
0.62688118 2.9773397 -0.59369057 20
0.62259257 2.9569712 -0.48197547 21
0.62368262 2.9621484 -0.37309104 26
1.071389 5.0885067 -0.45566091 19
1.0739728 5.1007781 -0.2775698 16
1.023827 4.8626132 -0.087579735 18
3.2961276 15.654788 4.277472 162
1.9534818 9.2779608 2.1854641 134
1.9557858 9.2889032 1.8439301 4
1.9658957 9.3369198 1.5075766 4
1.9653196 9.3341837 1.1673187 32
1.9704136 9.3583775 0.83561021 34
1.9031379 9.0388546 0.48955679 15
1.1268326 5.3518333 0.095025569 13
0.50491554 2.3612521 -0.64772612 29
0.59895003 2.801007 -0.662736 31
0.63828403 2.9849534 -0.59560573 24
0.63600898 2.9743142 -0.48512563 21
0.63506079 2.9698799 -0.37431428 29
1.0852866 5.0753741 -0.454788 102
1.0649347 4.9801979 -0.27118888 12
1.041189 4.8691502 -0.087755948 16
3.3473125 15.653802 4.280055 165
1.9826198 9.2717781 2.1854641 140
1.9849581 9.2827129 1.8439301 4
1.9972842 9.3403568 1.5091373 5
1.9967097 9.3376703 1.1685334 38
2.0060534 9.3813667 0.83822149 43
1.9336131 9.0425968 0.49008605 14
1.1457311 5.3580441 0.095199294 18
0.51642978 2.3785315 -0.65290797 46
0.60981387 2.8086324 -0.66499019 33
0.65182334 3.0021164 -0.59943599 25
0.6474452 2.981952 -0.48670071 23
0.64438778 2.9678702 -0.37431428 37
1.1096807 5.1108794 -0.45827964 49
1.0509124 4.840209 -0.26374447 5
1.0967883 5.0515003 -0.091104068 8
3.3985233 15.65265 4.2826381 173
2.0138056 9.2750263 2.1877103 139
2.0161936 9.2860241 1.845837 4
2.0266178 9.3340359 1.5091373 6
2.0260348 9.3313513 1.1685334 42
2.0334022 9.365283 0.83735108 35
1.9641304 9.046236 0.49061528 14
1.1668011 5.37396 0.095546737 14
0.51974165 2.3580329 -0.64772612 51
0.66267276 3.0065017 -0.71232843 76
0.66336417 3.0096385 -0.60135108 29
0.65893567 2.9895468 -0.4882758 26
0.6537084 2.965831 -0.37431428 43
1.1235873 5.0976396 -0.45740673 17
25.793058 117.02138 -6.3809147 -1
1.0545449 4.7843995 -0.086346216 6
3.447681 15.641896 4.2826381 158
2.0450313 9.2781696 2.1899564 148
2.0453565 9.279645 1.845837 4
2.0580575 9.3372688 1.510698 6
2.0574768 9.3346329 1.1697481 34
2.0649583 9.368577 0.83822149 44
1.9968392 9.0595245 0.4916738 13
1.1836782 5.3702679 0.095546737 14
0.52503848 2.3469629 -0.64513522 36
0.68487638 3.0614507 -0.72585368 49
0.67710143 3.0266962 -0.60518134 37
0.67263615 3.006736 -0.49142596 39
0.66735607 2.9831338 -0.37676078 40
1.122198 5.0163126 -0.45042342 34
1.0704031 4.7847853 -0.26108578 4
1.0608392 4.742034 -0.085641347 4
3.4989133 15.640415 4.2852211 170
2.0741696 9.2716999 2.1899564 152
2.0766423 9.282753 1.8477437 4
2.0895376 9.3403969 1.5122585 6
2.0867922 9.3281231 1.1697481 40
2.0943804 9.3620434 0.83822149 40
2.0340109 9.0921869 0.49379081 13
1.2049091 5.3860373 0.09589418 18
0.52599454 2.3170452 -0.63736254 41
0.72684288 3.2017972 -0.75966674 50
0.69312513 3.0532682 -0.61092675 56
0.6886372 3.0334985 -0.49615121 39
0.68111891 3.0003798 -0.37920728 34
1.1247196 4.9544744 -0.44518593 101
26.527813 116.857 -6.3809147 -1
1.0801584 4.7581787 -0.085993782 5
3.5501704 15.638767 4.2878041 155
2.1097589 9.2936459 2.1966949 170
2.1057947 9.2761831 1.8477437 4
2.1166844 9.3241539 1.510698 7
2.1182842 9.3312016 1.1709628 41
2.1259871 9.3651323 0.83909196 36
2.0780394 9.1539202 0.49749553 13
1.5095721 6.6497784 0.11847795 15
0.52893555 2.2965572 -0.63218069 47
0.79156405 3.4368496 -0.81602186 1
0.72914815 3.1658494 -0.63390833 76
0.70702934 3.069813 -0.50245154 65
0.69722414 3.0272403 -0.38287702 44
26.830093 116.49215 -10.474963 -1
1.1094104 4.8168898 -0.26321274 4
1.0951012 4.7547617 -0.085993782 11
3.6014516 15.63695 4.2903872 152
2.1367581 9.2774763 2.1944487 161
2.1371293 9.279088 1.8496506 4
2.1504004 9.336709 1.5138192 6
2.1498165 9.3341732 1.1721774 41
2.1576338 9.3681154 0.83996236 28
2.1291997 9.2446585 0.50278807 11
1.5304556 6.6450033 0.11847795 11
0.52296382 2.2384524 -0.61663526 130
0.80900663 3.4628072 -0.82278442 47
0.77928257 3.3355787 -0.66838068 1
0.75486243 3.2310526 -0.52922797 35
0.71124691 3.0443642 -0.38532352 70
1.1444955 4.8988066 -0.44082138 23
27.261518 116.68802 -6.3809147 -1
1.1145827 4.7707705 -0.086346216 1
3.6505587 15.625559 4.2903872 162
2.1658936 9.2707176 2.1944487 153
2.168503 9.2818871 1.8515575 4
2.1797218 9.3299074 1.5138192 7
2.1791298 9.3273735 1.1721774 43
2.1870539 9.36129 0.83996236 70
2.1764066 9.3157167 0.50702208 8
1.5490493 6.6304259 0.11830423 6
0.42310411 1.7856795 -0.49227187 73
0.81763512 3.4507685 -0.82053024 127
0.79202068 3.3426647 -0.67029583 35
0.76500928 3.2286651 -0.52922797 11
1.5834882 6.6829948 -0.84648854 1
1.5939735 6.7272472 -0.60580206 69
1.1350491 4.7903905 -0.26214924 11
1.1387858 4.8061614 -0.087051079 11
3.7085392 15.651615 4.3007193 168
2.1972544 9.2733488 2.1966949 159
2.1976523 9.2750292 1.8515575 4
2.2112992 9.3326244 1.5153798 8
2.2107105 9.3301401 1.1733922 37
2.2164524 9.354373 0.83996236 47
2.2125692 9.3379841 0.50860983 7
1.5744821 6.6449852 0.11865167 21
0.42194274 1.7561677 -0.48449916 43
0.82164389 3.4197636 -0.81376761 83
0.79334641 3.3019867 -0.66263527 23
0.77053469 3.207042 -0.52607781 37
1.6230246 6.7551894 -0.85627449 5
1.6174271 6.7318926 -0.60667497 7
1.14776 4.7770915 -0.26161751 22
1.167894 4.8608909 -0.088108383 7
3.7531781 15.6211 4.2955532 162
2.2263765 9.2664003 2.1966949 168
2.229073 9.2776241 1.8534644 4
2.2406075 9.3256311 1.5153798 8
2.2423298 9.3327999 1.1746069 49
2.2481563 9.3570509 0.84083277 46
2.2278972 9.2727299 0.50543427 9
28.029577 116.66189 2.084656 -1
0.41831434 1.7172968 -0.47413555 19
0.82777178 3.3982339 -0.80925924 61
0.79907024 3.2804058 -0.65880501 22
0.77826893 3.1950109 -0.52450269 50
0.1 0.1 0.1 -1
1.6385679 6.726778 -0.60667497 5
1.162762 4.7734623 -0.26161751 12
1.1855254 4.8669124 -0.088284597 48
3.8068073 15.628005 4.3007193 165
2.2554767 9.2593603 2.1966949 155
2.2582085 9.2705755 1.8534644 5
2.2722313 9.3281431 1.5169405 8
2.2716386 9.3257093 1.1746069 46
2.2798989 9.3596201 0.84170324 43
2.2522905 9.2462797 0.50437582 5
1.6185688 6.6446757 0.11882539 5
0.42168981 1.7065238 -0.47154462 29
0.83436191 3.376554 -0.8047508 13
0.80523509 3.2586813 -0.65497476 25
0.78175288 3.1636519 -0.51977748 30
1.5642358 6.3302584 -0.80367482 8
1.6608657 6.7213073 -0.60667497 10
1.1809806 4.7792745 -0.26214924 6
28.782232 116.47794 -2.1146011 -1
3.8655632 15.643431 4.3084683 166
2.2908447 9.27075 2.2011869 146
2.2842288 9.2439756 1.8496506 5
2.3055217 9.3301458 1.5185012 9
2.3025513 9.3181248 1.1746069 45
2.3109241 9.3520088 0.84170324 45
2.2877309 9.2581491 0.50543427 8
1.6453915 6.6586847 0.11917283 6
0.1 0.1 0.1 -1
0.83549809 3.336113 -0.79573399 22
0.81308413 3.2466147 -0.65305966 23
0.79408693 3.1707597 -0.52135253 11
1.5648261 6.2482924 -0.79388881 18
1.6843932 6.7257195 -0.60754788 6
1.1935632 4.7658539 -0.26161751 7
1.2096426 4.8300586 -0.087755948 3
3.9123423 15.621839 4.3058853 173
2.3223255 9.2729597 2.203433 156
2.3132582 9.2367544 1.8496506 4
2.3396211 9.34202 1.5216224 9
2.3342249 9.3204737 1.1758215 42
2.3427129 9.3543663 0.84257364 39
2.3289347 9.2993507 0.50808054 7
1.6663022 6.6534829 0.11917283 5
0.45141059 1.7787347 -0.49227187 77
0.84357816 3.3240285 -0.7934798 76
0.81845099 3.2250178 -0.64922935 23
0.8089025 3.187393 -0.52450269 123
1.5795652 6.2241058 -0.79144228 1
1.7055143 6.7203946 -0.60754788 12
1.2011607 4.7330437 -0.26002228 7
1.2125134 4.7777781 -0.086874865 8
3.9661531 15.628198 4.3110514 162
2.3514459 9.2656183 2.203433 157
2.3446796 9.2389565 1.8515575 4
2.3640988 9.3154755 1.5185012 7
2.3659363 9.3227158 1.1770363 36
2.3720889 9.3469601 0.84257364 28
2.3605945 9.3016672 0.50860983 6
1.6871965 6.6482153 0.11917283 7
0.45218593 1.7585992 -0.48709005 96
0.84916437 3.3024905 -0.78897136 80
0.8236903 3.2034192 -0.64539909 20
0.81399363 3.1657078 -0.52135253 43
1.6238267 6.3152351 -0.80367482 12
1.7315801 6.7342997 -0.6092937 3
1.2160239 4.7292466 -0.26002228 5
1.2225375 4.7545786 -0.08652243 5
4.0176368 15.625017 4.3136344 168
2.3756897 9.2393103 2.1989408 183
2.373693 9.2315445 1.8515575 4
2.3958123 9.3175688 1.5200617 4
2.3927407 9.305624 1.1758215 26
2.4039223 9.3491096 0.84344405 24
2.4047256 9.3522339 0.51178533 3
1.710564 6.6525655 0.11934656 7
0.46257773 1.7758633 -0.49227187 69
0.85462362 3.2809505 -0.78446299 91
0.82880193 3.1818197 -0.64156884 26
0.81646723 3.1344662 -0.51662731 11
1.6361533 6.2812891 -0.80000502 3
1.752728 6.7288265 -0.6092937 7
1.2359096 4.74473 -0.26108578 4
1.234948 4.7410388 -0.086346216 3
4.0691395 15.621667 4.3162174 173
2.4096167 9.2506609 2.203433 214
2.4076319 9.243041 1.8553712 3
2.4275622 9.3195553 1.5216224 3
2.4269676 9.3172722 1.1782509 19
2.4357927 9.3511524 0.84431452 39
2.4366117 9.3542957 0.51231456 6
1.7339755 6.6568346 0.11952028 4
0.46322653 1.7557234 -0.48709005 64
0.86244136 3.2688291 -0.7822088 69
0.83879381 3.1792002 -0.64156884 14
0.8263104 3.1318855 -0.51662731 13
0.1 0.1 0.1 -1
1.7738585 6.7232871 -0.6092937 1
1.2482619 4.7311683 -0.26055402 5
1.252387 4.7468033 -0.08652243 8
4.1206608 15.618147 4.3188004 197
2.4411526 9.2524672 2.2056792 197
2.4366577 9.2354317 1.8553712 3
2.4568286 9.311883 1.5216224 2
2.4536943 9.300004 1.1770363 27
2.4473684 9.2760267 0.83822149 1
2.4685345 9.3562508 0.51284379 7
1.75488 6.6513543 0.11952028 4
0.4737266 1.7729218 -0.49227187 49
0.86767638 3.2472789 -0.77770036 71
0.84877741 3.1765494 -0.64156884 32
0.84379309 3.1578956 -0.52135253 48
1.6755873 6.270885 -0.80000502 3
1.7975432 6.7273054 -0.61016661 8
1.265697 4.7368708 -0.26108578 5
1.2672933 4.7428451 -0.08652243 6
4.1746936 15.623791 4.3239665 165
2.4752388 9.2635813 2.2101715 214
2.4656596 9.2277308 1.8553712 3
2.4809709 9.2850332 1.5185012 4
2.467525 9.2347126 1.1697481 1
2.4996426 9.3549118 0.84605533 26
2.5004935 9.3580971 0.51337308 4
1.7783482 6.655468 0.119694 3
0.47424886 1.7527782 -0.48709005 68
