# .PCD v0.7 - Point Cloud Data file format
VERSION 0.7
FIELDS x y z intensity
SIZE 4 4 4 4
TYPE F F F F
COUNT 1 1 1 1
WIDTH 1438
HEIGHT 1
VIEWPOINT 0 0 0 1 0 0 0
POINTS 1438
DATA ascii
3.5281413 3.1368377 -0.92117798 20
4.5534964 4.0484719 -0.97182631 18
4.554173 4.0490732 -0.75107509 16
4.5711174 4.0641384 -0.53596896 12
4.5821414 4.0739398 -0.32649013 13
4.6028652 4.0923648 -0.10854953 11
4.6856055 4.1659288 1.6763765 32
4.6825762 4.1632352 1.4442482 28
4.6584978 4.1418271 1.2108538 13
4.650517 4.1347318 0.98320216 9
4.6436715 4.1286454 0.76039702 9
4.6382222 4.1238008 0.5422762 14
4.6120539 4.1005344 0.32707685 15
4.6103573 4.0990262 0.10718606 20
2.2221513 1.9632295 -0.79540771 26
2.1465802 1.8964638 -0.662736 28
3.5453339 3.1322367 -0.92309308 21
4.5587921 4.0276084 -0.97025126 24
4.559433 4.0281749 -0.74985182 14
4.5838628 4.049758 -0.53596896 27
4.5649834 4.0330777 -0.32436317 12
4.5932198 4.0580244 -0.10802088 16
4.6769505 4.131999 1.6686274 33
4.6883297 4.1420522 1.4420021 23
4.6641297 4.1206722 1.2089469 16
4.6486788 4.1070213 0.9800809 15
4.6343031 4.0943208 0.75675291 11
4.6287575 4.0894213 0.53966492 11
4.6174293 4.0794134 0.32654759 17
4.6082258 4.0712824 0.10683862 15
2.2210498 1.9498667 -0.79281682 41
0.1 0.1 0.1 -1
0.1 0.1 0.1 -1
4.5565805 4.0002365 -0.9671011 37
4.5646071 4.0072832 -0.74862856 12
4.566618 4.0090485 -0.53247732 19
4.5701265 4.0121288 -0.32383144 13
4.5834045 4.0237856 -0.10749222 10
4.6753888 4.1045384 1.6634613 41
4.6866732 4.1144452 1.4375099 53
4.6622982 4.0930467 1.2051332 13
4.6467128 4.0793638 0.97695959 11
4.6396832 4.0731926 0.75553823 11
4.6266088 4.0617146 0.53792405 10
4.6152139 4.0517106 0.3254891 17
4.5909381 4.0303993 0.10614374 15
2.2126079 1.9301808 -0.78763497 29
3.0321133 2.645081 -0.93098623 31
4.5190477 3.9422164 -1.170145 1
4.5468001 3.9664266 -0.96237582 38
4.5547366 3.97335 -0.74495882 12
4.5641766 3.9815848 -0.5307315 10
4.5751834 3.9911869 -0.32329968 13
4.5884886 4.0027938 -0.10731601 9
4.6737003 4.0771289 1.6582954 39
4.6775465 4.0804839 1.4307715 41
4.6603394 4.0654731 1.2013195 12
4.644619 4.0517592 0.97383833 17
4.6374969 4.0455465 0.75310886 11
4.6318393 4.0406108 0.53705364 11
4.6128697 4.0240626 0.32443061 17
4.6035776 4.0159564 0.10614374 17
2.1894679 1.8979146 -0.77727139 39
3.0404081 2.6355424 -0.93098623 28
0.1 0.1 0.1 -1
4.5368528 3.932718 -0.9576506 8
4.5671968 3.9590213 -0.74495882 9
4.5691352 3.9607015 -0.52985859 12
4.5726085 3.9637125 -0.32223621 12
4.5859308 3.9752607 -0.10696357 11
4.6718864 4.0497704 1.6531293 34
4.6756163 4.0530038 1.4262793 30
4.6582532 4.0379524 1.1975058 11
4.6498613 4.0306783 0.9722777 13
4.6426835 4.024456 0.75189418 11
4.6294551 4.0129895 0.53531277 11
4.6028519 3.9899285 0.32284287 16
4.5935059 3.981827 0.10562257 16
2.1807833 1.87842 -0.77208954 27
3.0486729 2.6259775 -0.93098623 31
0.1 0.1 0.1 -1
4.5417032 3.9120009 -0.95607549 19
4.5645719 3.931699 -0.74251235 8
4.5664597 3.9333248 -0.52811271 9
4.5699062 3.9362934 -0.32117271 13
4.5908213 3.9543087 -0.10678736 9
4.6772666 4.0287685 1.6505463 33
4.680943 4.0319352 1.4240332 39
4.6560402 4.0104852 1.1936921 10
4.6475334 4.0031576 0.96915638 14
4.6402621 3.9968948 0.74946475 11
4.6269436 3.9854226 0.53357196 9
4.6153636 3.9754484 0.32284287 15
4.5984168 3.9608512 0.10544885 18
2.171998 1.8589988 -0.76690775 42
3.0643094 2.6227221 -0.93324047 26
3.0124784 2.5783603 -0.77371287 1
4.5389657 3.884871 -0.95292532 59
4.561821 3.9044323 -0.74006581 10
4.5712256 3.9124818 -0.5272398 7
4.5822496 3.9219172 -0.32117271 15
4.5880294 3.9268639 -0.10643493 17
4.6752214 4.0014911 1.6453803 34
4.6861835 4.0108733 1.421787 39
4.6537008 3.9830716 1.1898783 11
4.6450782 3.9756918 0.96603513 9
4.6377139 3.9693887 0.74703538 11
4.6243043 3.9579115 0.53183109 11
4.6202435 3.9544358 0.32231361 14
4.5956454 3.9333825 0.10510141 17
2.1778276 1.8521662 -0.76690775 33
3.0725336 2.6130824 -0.93324047 70
0.1 0.1 0.1 -1
4.5436258 3.8641944 -0.95135027 11
4.566504 3.883652 -0.73884255 11
4.560729 3.8787401 -0.52462107 8
4.5717278 3.8880942 -0.31957749 11
4.5927267 3.9059532 -0.10625871 16
4.6730509 3.9742663 1.6402142 25
4.6764917 3.9771926 1.4150487 41
4.6587129 3.9620724 1.1879715 14
4.6424966 3.9482808 0.96291387 8
4.6274776 3.9355078 0.74339134 11
4.6215382 3.9304564 0.53009021 8
4.6098232 3.9204931 0.32072586 14
4.6003633 3.9124479 0.10492769 16
2.1615043 1.8266126 -0.75913507 38
3.0807278 2.6034167 -0.93324047 42
3.0735986 2.5973923 -0.7852037 21
4.5406575 3.8371532 -0.94820011 41
4.5483599 3.8436623 -0.7339496 12
4.5576739 3.8515332 -0.52287525 9
4.5686655 3.8608217 -0.31851399 10
4.5897012 3.8785985 -0.10590628 14
4.6781344 3.9533303 1.6376312 23
4.6815205 3.9561918 1.4128027 28
4.648644 3.9284086 1.182251 13
4.6473331 3.9273012 0.96135324 17
4.632237 3.9145439 0.74217665 12
4.6186452 3.9030581 0.5283494 14
4.6068625 3.8931005 0.31966734 15
4.5973582 3.8850689 0.10458025 14
2.1450419 1.8011801 -0.75136232 35
3.0888915 2.5937254 -0.93324047 42
3.0892599 2.5940349 -0.78711879 1
4.5451274 3.816519 -0.94662499 16
4.5528121 3.8229718 -0.73272634 11
4.5621223 3.8307898 -0.52200234 8
4.5807719 3.8464499 -0.31851399 9
4.5942068 3.8577306 -0.10573006 13
4.6831331 3.9324017 1.6350482 21
4.6640763 3.9163997 1.4038182 20
4.6534448 3.9074726 1.1803441 12
4.6369553 3.8936265 0.9566713 19
4.6369104 3.893589 0.74096191 11
4.6308846 3.8885288 0.5283494 14
4.6114225 3.8721869 0.31913811 13
4.5942268 3.8577476 0.1042328 11
2.1506898 1.7944324 -0.75136232 30
3.0970247 2.5840087 -0.93324047 47
3.1350751 2.6157563 -0.79669446 4
4.5495124 3.7958949 -0.94504994 2
4.557179 3.8022916 -0.73150307 14
4.5588369 3.8036747 -0.52025652 12
4.5774984 3.8192451 -0.31745052 13
4.583272 3.8240621 -0.10520141 9
4.6732106 3.8991027 1.6272992 24
4.6688747 3.8954852 1.4015721 39
4.6506224 3.8802562 1.1765304 9
4.633996 3.8663838 0.95355004 17
4.626255 3.8599255 0.73731786 11
4.6201301 3.854815 0.52573812 12
4.6005621 3.8384881 0.31755036 14
4.6063237 3.8432953 0.1042328 24
2.1414454 1.7753383 -0.74618053 31
3.1126275 2.5804844 -0.93549466 39
0.1 0.1 0.1 -1
4.5386081 3.7626755 -0.94032466 2
4.5461798 3.7689531 -0.72783333 13
4.5554256 3.776618 -0.5185107 13
4.5587239 3.7793527 -0.31532353 16
4.5798683 3.7968819 -0.10484897 9
4.6705623 3.8720706 1.6221331 31
4.6735878 3.874579 1.399326 13
4.647675 3.8530962 1.1727166 12
4.6461196 3.8518066 0.95355004 9
4.6307173 3.8390377 0.73610318 10
4.6245484 3.8339233 0.52486765 15
4.6125979 3.8240161 0.31755036 11
4.5875854 3.8032799 0.10353792 12
2.1321025 1.75632 -0.74099869 25
3.1357586 2.583082 -0.94000304 24
0.1 0.1 0.1 -1
4.5275402 3.7295623 -0.93559945 7
4.5579982 3.7546523 -0.72783333 10
4.5672679 3.7622881 -0.5185107 8
4.5705748 3.7650123 -0.31532353 12
4.5840569 3.776118 -0.10467276 28
4.6528778 3.8328092 1.611801 34
4.6631737 3.8412905 1.3925877 60
4.6446033 3.8259933 1.168903 13
4.6277018 3.8120708 0.94730747 10
4.6350937 3.8181598 0.73488849 9
4.628881 3.8130419 0.52399725 13
4.6014662 3.7904589 0.31596258 12
4.591794 3.7824917 0.10336419 11
2.1226614 1.7373781 -0.7358169 43
3.143858 2.5732181 -0.94000304 30
0.1 0.1 0.1 -1
0.1 0.1 0.1 -1
4.5697713 3.7403142 -0.72783333 11
4.5713558 3.7416115 -0.51763779 13
4.5669255 3.7379851 -0.31426007 14
4.5726857 3.7426996 -0.1041441 10
4.6574202 3.8120542 1.609218 42
4.6752181 3.8266218 1.3925877 28
4.649004 3.8051655 1.1669961 13
4.6396551 3.7975137 0.94730747 8
4.6317039 3.7910056 0.73245907 10
4.6100011 3.773242 0.52051556 8
4.6056237 3.7696593 0.31543335 10
4.5959172 3.7617147 0.10319047 13
2.128109 1.730701 -0.7358169 22
3.1670437 2.5756228 -0.94451147 36
3.6093476 2.9353297 -0.90777206 72
3.5242536 2.8661265 -0.72453827 171
4.5660992 3.7134154 -0.72538686 11
4.5753593 3.7209463 -0.51676488 9
4.570899 3.7173188 -0.3137283 12
4.576664 3.7220073 -0.10396789 15
4.6543827 3.785213 1.6040521 34
4.6720967 3.7996187 1.3880955 44
4.6457033 3.7781541 1.1631824 16
4.643899 3.7766869 0.94574684 23
4.63589 3.7701733 0.73124439 10
4.6141033 3.7524552 0.51964509 8
4.6019487 3.7425706 0.31437483 13
4.5921979 3.7346406 0.10284303 12
2.1185107 1.7118659 -0.73063511 46
3.1826975 2.5717838 -0.94676566 11
3.5727468 2.8869638 -0.89628124 1
3.5409214 2.8612471 -0.72611338 46
4.5545835 3.6803386 -0.72171706 10
4.579278 3.7002931 -0.51589197 13
4.5670204 3.6903882 -0.31266484 12
4.5805573 3.7013268 -0.10379168 15
4.6587377 3.7645004 1.601469 34
4.6688519 3.7726734 1.3836032 33
4.6346436 3.7450314 1.1574618 12
4.62501 3.7372468 0.93950427 10
4.6322703 3.7431135 0.72881502 9
4.6181207 3.7316799 0.51877469 9
4.5981498 3.7155421 0.31331635 10
4.5961313 3.7139113 0.10266931 9
2.7941802 2.2433686 -0.96122557 133
3.1831641 2.5556729 -0.94451147 52
3.6506796 2.9310279 -0.91351742 6
3.5344918 2.837744 -0.72296321 6
4.5506449 3.6535847 -0.71927059 15
4.5598083 3.6609416 -0.51240027 13
4.5708051 3.6697705 -0.31213307 12
4.57657 3.6743991 -0.10343924 11
4.6630077 3.7437978 1.598886 48
4.6730824 3.7518864 1.3813571 29
4.6387315 3.7243071 1.1555549 10
4.6290259 3.7165146 0.93794364 13
4.6285267 3.716114 0.72638565 11
4.614285 3.7046795 0.51703382 9
4.6020126 3.6948266 0.31278709 9
4.5921831 3.6869345 0.10232187 18
2.8540671 2.2767413 -0.97936195 1
3.2140257 2.5638869 -0.9512741 95
3.6445243 2.9073031 -0.90968716 8
3.5279498 2.8143096 -0.71981305 12
4.5465832 3.6268919 -0.71682411 15
4.5557117 3.6341741 -0.51065445 18
4.5666986 3.6429384 -0.31106961 12
4.5802746 3.6537681 -0.10326302 11
4.6596422 3.7170811 1.59372 41
4.669611 3.7250335 1.3768649 37
4.642735 3.703594 1.1536481 10
4.6252356 3.6896346 0.93482238 13
4.6324191 3.6953647 0.72517097 10
4.618113 3.6839526 0.51616341 8
4.6057911 3.6741233 0.31225786 14
4.5959268 3.6662543 0.10214815 7
2.8691719 2.2732623 -0.98195285 61
3.214874 2.5471642 -0.94901985 12
3.6310663 2.8769162 -0.90394181 7
3.5372632 2.8025951 -0.71981305 6
4.550806 3.6056316 -0.71560085 13
4.5677381 3.6190469 -0.51065445 16
4.5630999 3.6153719 -0.31000611 11
4.5688553 3.6199319 -0.10273437 12
4.6492267 3.6836107 1.5859709 36
4.6513872 3.6853223 1.3678805 39
4.6472969 3.6820815 1.1517413 10
4.6297035 3.6681423 0.93326175 8
4.636868 3.6738186 0.72395623 8
4.6224957 3.6624317 0.51529294 13
4.5944686 3.6402256 0.31067008 13
4.5923858 3.6385753 0.1018007 11
2.8535318 2.2463145 -0.9741801 63
3.2381709 2.5491045 -0.95352829 24
3.6400867 2.8654945 -0.90394181 7
3.5460503 2.7914686 -0.71981305 6
4.546514 3.5790389 -0.71315432 13
4.5556026 3.5861936 -0.50803572 13
4.5587425 3.5886652 -0.30894262 11
4.5644927 3.5931916 -0.10238194 15
4.6455946 3.6570354 1.5808049 33
4.6476283 3.6586366 1.3633883 43
4.6511283 3.6613915 1.1498344 13
4.6334434 3.64747 0.93170106 9
4.6249886 3.6408145 0.72031218 9
4.6183233 3.6355677 0.51355213 9
4.5980358 3.619597 0.31014085 14
4.580225 3.6055763 0.10127954 15
2.9058254 2.2735484 -0.98972553 35
3.2457199 2.5394855 -0.95352829 57
3.6253827 2.8365374 -0.8981964 6
3.5309846 2.7626793 -0.71508777 5
4.5414801 3.5533018 -0.71070784 13
4.5505314 3.5603838 -0.5062899 15
4.5615058 3.5689702 -0.30841088 11
4.5672588 3.5734715 -0.10220572 15
4.6488161 3.6372826 1.5782219 36
4.6507888 3.6388261 1.3611422 25
4.6387773 3.6294281 1.1441138 10
4.6286864 3.6215329 0.92857981 14
4.6201358 3.6148429 0.71788281 10
4.6133981 3.6095715 0.51181126 8
4.6008902 3.5997849 0.30961159 15
4.5909028 3.5919707 0.10127954 11
2.9049339 2.2589874 -0.98713464 37
3.2532403 2.529844 -0.95352829 42
3.6337829 2.8257682 -0.8981964 10
3.5469615 2.7582529 -0.71666288 21
4.5520029 3.5398114 -0.71070784 15
4.5610752 3.5468664 -0.5062899 14
4.5641923 3.5492902 -0.30787915 10
4.5620561 3.5476289 -0.10185329 12
4.6519613 3.617543 1.5756389 35
4.6538725 3.619029 1.358896 49
4.6417766 3.6096225 1.1422069 9
4.6238165 3.5956564 0.92545855 9
4.6230054 3.5950255 0.71666813 8
4.6240878 3.5958672 0.51181126 8
4.6036677 3.5799878 0.30908233 17
4.5778618 3.5599201 0.10075837 8
3.149801 2.4318097 -1.0674527 29
3.2620513 2.5184727 -0.95352829 33
3.6203177 2.7950728 -0.89245099 13
3.5565681 2.7458546 -0.71666288 5
4.5486193 3.5117698 -0.70826137 13
4.5497727 3.5126603 -0.50367117 13
4.5607452 3.5211315 -0.30681565 12
4.5664973 3.5255725 -0.10167708 9
4.6492672 3.5894749 1.5704728 34
4.6510506 3.590852 1.3544039 37
4.6465778 3.5873988 1.1403002 11
4.6207027 3.5674219 0.92233723 7
4.6198125 3.5667346 0.7142387 8
4.6208405 3.5675285 0.51007038 14
4.592423 3.5455885 0.30749458 23
4.59026 3.5439186 0.10075837 33
3.2647164 2.5041997 -1.1037253 17
3.2931385 2.526001 -0.96029091 26
3.6212931 2.7777119 -0.89053589 5
3.5651767 2.734668 -0.71666288 60
4.5438795 3.4853816 -0.70581484 15
4.5528812 3.4922864 -0.50279826 10
4.5638614 3.5007086 -0.30628392 10
4.5696177 3.5051239 -0.10150085 7
4.6528554 3.5689714 1.5678898 30
4.6545768 3.570292 1.3521577 33
4.6266689 3.5488851 1.1326727 13
4.6240501 3.5468764 0.92077661 9
4.6231189 3.5461621 0.71302402 9
4.6241212 3.5469308 0.50919998 12
4.603539 3.5311434 0.30749458 24
4.5934377 3.5233951 0.10058466 38
3.2648854 2.4880769 -1.1011344 27
3.293309 2.5097375 -0.95803666 12
3.6378081 2.7722707 -0.89245099 15
3.6130223 2.7533822 -0.72453827 7
4.5548067 3.4710894 -0.70581484 13
4.5638304 3.4779658 -0.50279826 14
4.5668941 3.4803009 -0.30575216 7
4.5726542 3.4846904 -0.10132464 15
4.6486773 3.5426254 1.5627238 22
4.6502695 3.5438387 1.3476654 31
4.62218 3.5224326 1.1288589 12
4.6273136 3.526345 0.91921598 13
4.6184473 3.519588 0.71059465 9
4.6193943 3.5203097 0.5074591 16
4.5907822 3.4985054 0.30590683 23
4.5885792 3.4968264 0.10023721 18
3.2803862 2.4836378 -1.1037253 22
3.3167121 2.5111406 -0.9625451 31
3.623024 2.7430549 -0.88670558 5
3.6610203 2.7718225 -0.73241371 15
4.5498633 3.4447811 -0.70336837 13
4.5509071 3.4455714 -0.50017953 11
4.5618825 3.453881 -0.30468869 7
4.5756078 3.4642725 -0.10114842 7
4.6597838 3.5280037 1.5627238 27
4.6691484 3.535094 1.3499116 12
4.6332231 3.507894 1.1288589 14
4.6304941 3.5058281 0.91765535 12
4.6215677 3.4990699 0.70937997 11
4.6066036 3.48774 0.50484782 10
4.5858274 3.4720101 0.30484834 20
4.5915704 3.4763584 0.10006349 33
3.3190475 2.4965436 -1.114089 24
3.3167989 2.4948521 -0.96029091 18
3.6473112 2.743459 -0.89053589 2
3.6697102 2.7603073 -0.73241371 5
4.5447998 3.4185381 -0.70092183 10
4.5617094 3.4312575 -0.50017953 40
4.5727105 3.4395323 -0.30468869 7
4.5784779 3.4438705 -0.10097221 8
4.6476831 3.4959257 1.5549748 23
4.6568694 3.5028353 1.3431733 36
4.6285305 3.4815195 1.1250453 15
4.6256981 3.4793887 0.91453409 14
4.616673 3.4726002 0.70695055 10
4.6095767 3.4672625 0.50397742 9
4.5967126 3.4575863 0.30484834 25
4.5864882 3.4498959 0.099716045 23
3.3268743 2.4861042 -1.114089 24
3.348033 2.5019157 -0.96705353 48
3.6480498 2.7261119 -0.88862073 13
3.6862743 2.7546763 -0.73398876 5
4.5634675 3.4101846 -0.7021451 10
4.5565066 3.404983 -0.49843368 7
4.5754943 3.4191723 -0.30415693 9
4.5652471 3.4115145 -0.10044356 9
4.6431656 3.4697413 1.5498087 23
4.6522393 3.476522 1.3386811 29
4.6237183 3.4552088 1.1212316 15
4.6207814 3.4530141 0.91141278 15
4.6196084 3.4521377 0.70573586 10
4.6044865 3.4408374 0.50223655 12
4.5755553 3.4192176 0.30273134 26
4.5892944 3.4294848 0.099542327 31
3.3269131 2.469883 -1.1114981 23
3.3480539 2.4855778 -0.96479928 24
0.1 0.1 0.1 -1
3.7028391 2.7489686 -0.73556387 4
4.5582204 3.3839989 -0.69969863 9
4.5511842 3.3787754 -0.49668786 13
4.570178 3.3928761 -0.30309346 9
4.567914 3.3911955 -0.10026734 8
4.6462865 3.4493787 1.5472257 28
4.655314 3.4560807 1.336435 34
4.6266685 3.4348145 1.1193247 18
4.6157446 3.4267049 0.90829152 12
4.6065216 3.4198575 0.70209181 9
4.607275 3.4204168 0.50136614 12
4.5782566 3.3988736 0.30220208 20
4.5920181 3.4090903 0.099368602 27
3.3502021 2.4708848 -1.1166799 25
3.3558462 2.4750473 -0.96479928 21
3.6730051 2.7089627 -0.89053589 5
3.711457 2.7373221 -0.73556387 20
4.5608416 3.3637712 -0.69847536 13
4.545742 3.3526349 -0.49494201 7
4.5647411 3.3666475 -0.30202997 11
4.5624518 3.364959 -0.099914901 9
4.6493254 3.4290309 1.5446427 30
4.6426215 3.4240868 1.3296967 27
4.6216359 3.4086092 1.1155109 15
4.6185379 3.4063244 0.90673089 15
4.6172428 3.4053688 0.70209181 9
4.601963 3.3940997 0.49962527 11
4.5889115 3.3844738 0.30220208 17
4.5866117 3.3827777 0.099021159 17
3.3575187 2.4609337 -1.1166799 26
3.3788908 2.4765985 -0.96930772 23
0.1 0.1 0.1 -1
3.7275274 2.7321358 -0.73713893 4
4.5547919 3.3384895 -0.69602883 16
4.5476351 3.3332436 -0.4940691 16
4.5586019 3.3412821 -0.30096647 13
4.5562873 3.3395855 -0.099562474 7
4.6361036 3.3980877 1.5368936 31
4.637042 3.3987756 1.3252044 26
4.6238117 3.3890784 1.1136041 16
4.6206579 3.3867667 0.90517026 14
4.6113148 3.3799186 0.69966239 9
4.6039782 3.374541 0.49875486 9
4.5828252 3.3590367 0.30114359 20
4.5805001 3.3573325 0.098673716 20
3.3726127 2.4566476 -1.1192708 28
3.394099 2.4722984 -0.97156191 20
3.7048824 2.6986766 -0.89436615 5
3.7435994 2.7268784 -0.73871404 9
4.5406108 3.30743 -0.69235909 12
4.5414004 3.3080053 -0.49232328 11
4.544281 3.3101037 -0.29937124 15
4.5580945 3.3201654 -0.099386252 14
4.6383567 3.3786294 1.5343106 25
4.6392293 3.3792648 1.3229582 33
4.6259122 3.3695645 1.1116972 13
4.6147184 3.3614109 0.90204895 16
4.6052766 3.3545332 0.69723302 8
4.5978661 3.3491352 0.49701399 7
4.5927715 3.3454244 0.30114359 23
4.5823598 3.3378403 0.098499998 24
3.3811674 2.44486 -1.1192708 31
3.4027083 2.4604359 -0.97156191 26
3.746094 2.7087317 -0.90202665 10
3.7610974 2.7195804 -0.74028909 4
4.5521283 3.2915602 -0.69235909 10
4.5529199 3.2921326 -0.49232328 17
4.5558081 3.2942209 -0.29937124 11
4.561554 3.2983758 -0.099210039 16
4.6422939 3.3567572 1.5317277 25
4.6509972 3.3630505 1.3229582 24
4.6217365 3.3418927 1.1078836 15
4.6104155 3.3337066 0.89892769 13
4.6089144 3.3326213 0.69601834 9
4.6176014 3.3389025 0.49788442 15
4.5801449 3.3118184 0.29955584 22
4.5777783 3.3101075 0.098152556 26
3.3966758 2.4398603 -1.1218617 32
3.4104211 2.4497337 -0.97156191 23
3.7625568 2.7026756 -0.90394181 9
3.7856636 2.7192736 -0.74343926 7
4.5543857 3.2714529 -0.69113588 11
4.5551491 3.2720013 -0.49145037 8
4.5499139 3.2682407 -0.29830778 8
4.5556526 3.2723627 -0.098857604 10
4.6292777 3.3252485 1.5239786 23
4.6457109 3.3370523 1.3184661 36
4.6242394 3.3216295 1.1059767 14
4.6208658 3.319206 0.89892769 12
4.6113 3.3123348 0.69480366 10
4.5957036 3.301132 0.49440271 9
4.5824161 3.2915874 0.29902658 25
4.5719137 3.2840433 0.097805113 19
3.4200485 2.4403977 -1.1270435 33
3.4418921 2.4559844 -0.97832453 32
3.7870078 2.7022438 -0.90777206 9
3.8022263 2.7131031 -0.74501437 4
4.5484824 3.245599 -0.68868935 11
4.5572968 3.2518885 -0.49057746 8
4.5520301 3.2481303 -0.29777601 11
4.5577717 3.2522271 -0.09868139 7
4.6397014 3.3106887 1.5239786 22
4.6482391 3.316781 1.3162199 18
4.6266613 3.301384 1.1040698 13
4.6071491 3.287461 0.89424574 13
4.6055231 3.2863009 0.69237429 8
4.5979428 3.2808917 0.4935323 11
4.5683479 3.259774 0.29743883 17
4.5659304 3.258049 0.09745767 19
3.4355781 2.4352267 -1.1296344 29
3.4654877 2.4564273 -0.98283291 28
3.7954786 2.6903334 -0.90777206 6
3.826844 2.7125659 -0.74816453 7
4.5343652 3.2140753 -0.68501961 13
4.5593634 3.2317946 -0.48970455 9
4.5540652 3.228039 -0.29724428 10
4.551652 3.2263286 -0.098328955 8
4.6343164 3.2849233 1.5188125 17
4.6506863 3.2965267 1.3139739 40
4.6129842 3.2698023 1.0983492 14
4.609396 3.2672591 0.89268512 11
4.6158247 3.271816 0.69237429 8
4.5919724 3.2549088 0.49179143 9
4.5785661 3.2454062 0.29743883 16
4.5761433 3.2436886 0.09745767 16
3.4511089 2.4299819 -1.1322253 52
3.4731877 2.445528 -0.98283291 18
3.819962 2.6896975 -0.91160232 9
3.8595703 2.7175863 -0.75288975 3
4.536325 3.1941004 -0.68379635 11
4.5532031 3.2059846 -0.4879587 11
4.5560188 3.207967 -0.29671255 8
4.5535903 3.2062569 -0.098152734 8
4.6446133 3.2703478 1.5188125 25
4.6450849 3.2706797 1.3094816 17
4.6232338 3.2552941 1.0983492 16
4.6196375 3.2527621 0.89268512 18
4.609849 3.2458696 0.68994486 8
4.5858846 3.2289958 0.49005058 10
4.5805745 3.2252569 0.29690957 17
4.5699606 3.2177835 0.097110227 13
0.1 0.1 0.1 -1
3.5127878 2.4569404 -0.99184972 60
3.8525214 2.6945596 -0.91734767 5
3.8599966 2.6997876 -0.7513147 17
4.5382042 3.174145 -0.68257308 9
4.5550895 3.1859548 -0.48708579 13
4.5497088 3.1821914 -0.29564905 8
4.5636401 3.1919355 -0.098152734 10
4.6390314 3.2446663 1.5136465 19
4.6473517 3.2504857 1.3072355 21
4.6253934 3.2351274 1.0964423 16
4.6136456 3.2269106 0.88956386 12
4.6037555 3.2199934 0.6875155 7
4.5878425 3.2088633 0.48918015 8
4.5743179 3.199404 0.29585108 17
4.5800467 3.2034109 0.097110227 16
0.1 0.1 0.1 -1
3.7125158 2.5793049 -1.0459507 161
3.8690281 2.6880434 -0.91926283 9
3.909009 2.7158203 -0.75919008 7
4.5481539 3.1598721 -0.68257308 12
4.5405326 3.154577 -0.48446706 9
4.5514827 3.1621847 -0.29511732 7
4.5572233 3.1661732 -0.097800307 6
4.6254005 3.2135401 1.5058975 17
4.6335325 3.2191899 1.3004972 22
4.6194105 3.2093785 1.0926287 15
4.6075368 3.201129 0.8864426 22
4.6056972 3.1998508 0.68630081 10
4.5979009 3.1944344 0.48918015 5
4.5761456 3.1793199 0.29532182 18
4.5736656 3.1775966 0.096762784 18
0.1 0.1 0.1 -1
3.7526748 2.5897636 -1.0549674 61
3.8774538 2.6758752 -0.91926283 9
4.40518 3.0400651 -0.85369509 1
4.5417213 3.1342936 -0.68012661 11
4.5422215 3.1346388 -0.48359415 8
4.5449567 3.1365266 -0.29405382 7
4.5589185 3.1461616 -0.097624086 5
4.6275225 3.193506 1.5033145 24
4.635603 3.1990826 1.298251 16
4.6133113 3.1836989 1.088815 12
4.6094408 3.1810279 0.88488191 16
4.5993881 3.1740901 0.68387145 7
4.5915155 3.1686573 0.4874393 9
4.5696735 3.153584 0.29426333 13
4.5753965 3.1575334 0.096589066 17
0.1 0.1 0.1 -1
3.8009715 2.6055038 -1.0662385 51
0.1 0.1 0.1 -1
4.5287418 3.1043785 -0.87574625 1
4.5351729 3.1087868 -0.67768013 12
4.5356135 3.1090889 -0.48184833 11
4.5465517 3.1165867 -0.29352209 8
4.5522861 3.1205177 -0.097271651 9
4.6295643 3.1734905 1.5007315 17
4.6375928 3.1789942 1.296005 19
4.6151938 3.1636398 1.0869081 13
4.6031175 3.1553617 0.88176066 10
4.60115 3.1540132 0.68265671 9
4.5932307 3.1485844 0.48656887 7
4.5795584 3.1392124 0.29426333 16
4.5770469 3.1374907 0.096415341 12
3.2892606 2.2395778 -1.0674527 55
3.7769256 2.5716171 -1.0572217 33
4.5107703 3.0712743 -1.0648128 8
0.1 0.1 0.1 -1
4.5367131 3.0889382 -0.67645687 7
4.5453587 3.0948246 -0.48184833 8
4.5480661 3.096668 -0.29299033 5
4.5538025 3.1005735 -0.097095437 7
4.6235404 3.1480565 1.4955654 21
4.6233931 3.1479564 1.2892666 12
4.6169958 3.1436005 1.0850012 13
4.6048431 3.1353259 0.88020003 11
4.6028314 3.1339562 0.68144202 7
4.5948648 3.1285322 0.48569843 8
4.5811434 3.1191897 0.29373407 13
4.5703516 3.1118417 0.096067898 12
3.3846872 2.288161 -1.0959526 52
3.8015752 2.5699911 -1.06173 92
4.5615859 3.0837836 -1.0743884 20
4.5405135 3.0695379 -0.8741712 1
4.5387092 3.0683184 -0.6752336 7
4.5555964 3.0797346 -0.48184833 10
4.5417643 3.0703835 -0.29192686 6
4.5474925 3.0742562 -0.096743003 3
4.6259508 3.1272964 1.4929824 18
4.6338067 3.1326072 1.2892666 25
4.6192622 3.1227748 1.0830944 12
4.6070318 3.1145065 0.8786394 12
4.6049752 3.1131163 0.68022734 7
4.5887079 3.1021192 0.48395759 6
4.5749164 3.0927954 0.29267558 11
4.5723624 3.091069 0.09589418 12
3.3838403 2.2721322 -1.0933617 37
3.8338954 2.5743287 -1.0684927 37
4.5223613 3.0366096 -1.0628977 7
0.1 0.1 0.1 -1
4.5400867 3.0485117 -0.67401034 6
4.5569787 3.0598543 -0.48097539 7
4.5513878 3.0561001 -0.29192686 6
4.5571284 3.0599546 -0.096743003 6
4.6197119 3.1019773 1.4878163 17
4.6274452 3.1071701 1.2847744 18
4.6209002 3.1027753 1.0811876 11
4.6003928 3.0890052 0.87551808 9
4.5982513 3.0875676 0.67779797 7
4.5818901 3.0765812 0.48221675 8
4.58461 3.0784075 0.29267558 11
4.5654492 3.0655417 0.095546737 8
3.3909616 2.2614903 -1.0933617 1
3.8581748 2.5730827 -1.0730011 50
4.5237131 3.0169415 -1.0609825 8
4.5350628 3.0245111 -0.86944592 3
4.5413842 3.0287268 -0.67278713 5
4.5417056 3.0289412 -0.47835666 7
4.5526586 3.0362458 -0.2913951 5
4.5500822 3.0345278 -0.096390568 5
4.621397 3.0820887 1.4852333 18
4.629077 3.0872104 1.2825283 21
4.6142912 3.0773497 1.0773739 10
4.6018567 3.069057 0.87395746 15
4.5996709 3.0675991 0.67658329 7
4.5832448 3.0566442 0.48134631 7
4.5859504 3.0584488 0.29214633 11
4.575057 3.0511839 0.095546737 11
3.4383109 2.2774947 -1.1063162 21
3.8662393 2.5609493 -1.0730011 5
4.5331688 3.0027151 -1.0609825 6
4.5527754 3.0157022 -0.87102103 18
4.5426025 3.0089638 -0.67156386 5
4.5428939 3.0091569 -0.47748375 4
4.5538497 3.0164139 -0.29086336 6
4.5512576 3.0146968 -0.096214354 4
4.6149487 3.0568852 1.4800674 19
4.6306291 3.0672715 1.2802823 20
4.6075683 3.0519965 1.0735601 10
4.6114759 3.0545847 0.87395746 11
4.6092854 3.0531337 0.67658329 6
4.5928249 3.0422304 0.48134631 6
4.5788856 3.0329974 0.29108781 10
4.5679488 3.025753 0.095199294 10
3.4373798 2.2613733 -1.1037253 16
3.8742659 2.5487905 -1.0730011 5
4.5179811 2.972276 -1.0552372 6
4.5457268 2.9905295 -0.86787087 13
4.53545 2.9837685 -0.66911739 5
4.5523248 2.9948702 -0.47748375 5
4.5549612 2.9966042 -0.29033163 5
4.5523529 2.9948885 -0.096038133 7
4.6245298 3.042372 1.4800674 23
4.6321015 3.047353 1.2780361 17
4.608933 3.0321112 1.0716532 10
4.6045456 3.0292249 0.8708362 11
4.6022692 3.0277274 0.67415386 6
4.5773921 3.0113611 0.47873503 5
4.5883918 3.0185976 0.29108781 8
4.5774322 3.0113873 0.095199294 10
3.4121249 2.2294314 -1.0933617 12
3.8822539 2.5366066 -1.0730011 13
4.5190797 2.9526989 -1.053322 5
4.5385656 2.965431 -0.8647207 11
4.5448012 2.9695053 -0.66911739 4
4.5533714 2.9751048 -0.47661084 4
4.5559931 2.9768176 -0.28979987 4
4.553369 2.9751034 -0.095861919 5
4.6178899 3.0172601 1.4749013 20
4.6253366 3.022126 1.2735438 20
4.6019998 3.0068779 1.0678395 9
4.6057706 3.0093417 0.86927557 9
4.6034489 3.0078247 0.67293918 6
4.5868297 2.9969659 0.47873503 10
4.5811324 2.9932435 0.29002932 12
4.5784998 2.9915233 0.095025569 5
3.4110098 2.2134433 -1.0907708 15
3.8983765 2.529701 -1.0752553 11
4.5365667 2.94383 -1.0552372 7
4.5395756 2.9457824 -0.86314559 6
4.5457826 2.94981 -0.66789412 5
4.5710521 2.966208 -0.47748375 6
4.5569458 2.9570541 -0.28926814 6
4.554306 2.9553411 -0.095685706 3
4.6192422 2.997479 1.4723183 21
4.6348085 3.00758 1.2735438 21
4.603189 2.987062 1.0659328 11
4.5986304 2.9841039 0.86615425 8
4.6128755 2.9933476 0.67293918 7
4.5795088 2.9716957 0.47699416 5
4.57376 2.9679651 0.28897083 8
4.5794878 2.9716821 0.094851851 16
3.4098282 2.1974843 -1.0881799 28
3.922683 2.5279968 -1.0797637 13
4.5375428 2.9242468 -1.053322 7
4.5322061 2.9208074 -0.85999542 6
4.538342 2.9247618 -0.66544759 4
4.5552278 2.9356439 -0.47486502 6
4.5578194 2.937314 -0.2887364 3
4.5551634 2.9356027 -0.095509484 2
4.6123953 2.972486 1.4671522 18
4.6360431 2.987726 1.2712978 19
4.6042991 2.9672682 1.0640259 10
4.6162853 2.9749928 0.86771494 15
4.5888829 2.9573333 0.66808045 5
4.5804482 2.9518976 0.47612375 4
4.5746675 2.9481721 0.28844157 8
4.5803967 2.9518642 0.094678126 8
3.2048459 2.0519495 -1.0208164 10
3.9301665 2.5163467 -1.0797637 22
4.4800725 2.8684323 -1.0380009 16
4.5325356 2.9020226 -0.85842037 5
4.5386415 2.9059317 -0.66422439 4
4.5555282 2.9167438 -0.47399208 5
4.5581045 2.9183934 -0.28820464 2
4.5638537 2.9220743 -0.095509484 5
4.6130586 2.9535785 1.4645692 16
4.6284742 2.9634488 1.2668055 13
4.6048155 2.9483008 1.062119 8
4.6001363 2.9453049 0.863033 9
4.5976377 2.9437048 0.66808045 6
4.5891867 2.9382942 0.47612375 6
4.5665751 2.9238167 0.28738308 7
4.5807142 2.9328697 0.094504409 7
3.2027705 2.0372477 -1.0182256 13
0.1 0.1 0.1 -1
4.1076155 2.6128099 -0.94990492 6
4.532794 2.8832614 -0.85684526 13
4.5388694 2.8871257 -0.66300112 4
4.5473514 2.8925211 -0.47224626 4
4.5498919 2.8941374 -0.28714117 4
4.5640674 2.9031539 -0.095333271 3
4.6054993 2.9295084 1.4594032 15
4.6208029 2.9392428 1.2623134 21
4.6052604 2.9293563 1.0602121 9
4.6005206 2.9263415 0.86147237 7
4.5979762 2.9247231 0.66686577 4
4.5810733 2.9139714 0.47438288 4
4.5752301 2.9102545 0.28738308 6
4.5809598 2.9138992 0.094330683 6
3.2013419 2.0214591 -1.0156345 7
3.2044988 2.0234523 -0.87688535 1
4.1079583 2.5939341 -0.94798982 11
4.1081367 2.5940466 -0.77494097 3
4.5148506 2.8508625 -0.65810812 8
4.5484953 2.872107 -0.47137335 4
4.5594645 2.8790336 -0.28714117 2
4.5652151 2.8826647 -0.09515705 2
4.6070199 2.9090619 1.4568202 14
4.6140451 2.9134982 1.2578211 17
4.6066489 2.9088275 1.0583053 7
4.5934958 2.9005222 0.85835111 6
4.599257 2.90416 0.66565102 4
4.5822878 2.893445 0.47351247 3
4.5764122 2.889735 0.28685382 6
4.5821433 2.8933539 0.094156966 4
3.2076766 2.0113916 -1.0156345 12
0.1 0.1 0.1 -1
3.2429779 2.0335274 -0.74690104 7
4.1078997 2.5758815 -0.77336586 3
4.1285839 2.5888519 -0.60061538 7
4.5574956 2.8578033 -0.47137335 4
4.5515666 2.8540854 -0.28607768 3
4.5657778 2.8629968 -0.094980836 4
4.6079516 2.889442 1.4542372 13
4.6231756 2.8989882 1.2578211 11
4.6074476 2.8891261 1.0563984 6
4.6109538 2.8913245 0.85991174 12
4.5915389 2.8791504 0.66322166 4
4.5829153 2.8737428 0.47264203 6
4.5770078 2.8700383 0.28632456 5
4.5827398 2.8736327 0.09398324 4
3.2061293 1.9956397 -1.0130436 8
3.22577 2.007865 -0.87913954 5
3.2330382 2.0123889 -0.74307078 6
3.2361257 2.0143108 -0.6079821 7
4.1118684 2.5594127 -0.59694564 4
4.5415754 2.8268819 -0.46875462 8
4.5440502 2.8284223 -0.28501418 2
4.55827 2.8372731 -0.094628401 2
4.6093063 2.8690405 1.4516542 11
4.6244907 2.8784921 1.2555751 20
4.6086688 2.8686438 1.0544915 6
4.603745 2.8655789 0.85679042 4
4.6010613 2.8639085 0.66322166 3
4.5755048 2.8480008 0.47090119 3
4.5864997 2.8548446 0.28632456 5
4.5837555 2.8531363 0.093809523 4
3.2123828 1.9855576 -1.0130436 9
3.2403493 2.0028434 -0.88139373 26
3.2309954 1.9970618 -0.74115568 5
3.2256377 1.9937502 -0.60483193 5
3.2418797 2.0037894 -0.46972772 6
4.1182699 2.5454817 -0.42423603 4
4.2301326 2.6146233 -0.26480797 17
4.5671611 2.8229389 -0.094628401 2
4.6100793 2.8494666 1.4490712 11
4.6169333 2.8537028 1.2510828 9
4.6093082 2.84899 1.0525846 4
4.6043229 2.8459084 0.85522979 7
4.6100359 2.8494396 0.66322166 3
4.6013775 2.8440878 0.47264203 5
4.5784574 2.829921 0.28526607 4
4.575686 2.8282082 0.09346208 4
3.2021413 1.9653511 -1.0078619 8
3.2300186 1.9824611 -0.87688535 21
3.2288885 1.9817674 -0.73924053 4
3.2318852 1.9836067 -0.60483193 5
3.2481587 1.9935948 -0.46972772 4
3.2517538 1.9958013 -0.33432591 9
4.1191759 2.5281916 -0.25736356 1
4.1328926 2.5366104 -0.085465133 23
4.610775 2.8299162 1.4464881 10
4.6175704 2.8340869 1.2488366 7
4.6182356 2.8344953 1.0525846 6
4.6216588 2.8365963 0.85679042 3
4.6020455 2.8245585 0.66079229 3
4.5933089 2.819196 0.47090119 4
4.578814 2.8102999 0.28473681 4
4.5334196 2.7824385 0.092419751 7
3.1918049 1.9452287 -1.0026801 8
3.24455 1.9773741 -0.87913954 20
3.2267175 1.966506 -0.73732537 4
3.221236 1.9631654 -0.60168177 4
3.2289808 1.9678854 -0.46605799 5
3.2409947 1.9752072 -0.33258009 3
102.32475 62.361282 -6.3809147 -1
4.1323037 2.5184107 -0.085288912 1
4.6113935 2.8103895 1.4439051 8
4.6264515 2.8195665 1.2488366 14
4.6187353 2.8148642 1.0506779 4
4.6052442 2.8066418 0.85210854 3
4.6024203 2.8049212 0.65957761 2
4.5766225 2.7891986 0.46828988 3
4.1868434 2.5516496 0.25986204 20
4.1493974 2.5288284 0.084428571 5
3.2061634 1.9401923 -1.005271 8
3.2257404 1.9520392 -0.87237692 18
3.2244823 1.9512779 -0.73541027 4
3.2189388 1.9479232 -0.60010672 4
3.2351472 1.9577316 -0.46605799 4
3.2557068 1.9701731 -0.333453 7
3.2464716 1.9645846 -0.20206231 4
3.2505662 1.9670625 -0.066962369 8
4.6119347 2.7908869 1.4413221 7
4.6269493 2.7999732 1.2465906 5
4.6191573 2.7952578 1.048771 3
4.605588 2.7870464 0.85054791 3
4.6112099 2.7904484 0.65957761 2
4.4830871 2.7129154 0.45784476 7
4.1435781 2.5074635 0.25668654 1
4.1487675 2.5106039 0.084254846 8
3.203964 1.9251357 -1.0026801 9
3.223506 1.9368778 -0.87012273 13
3.2305965 1.9411383 -0.73541027 4
3.2250426 1.937801 -0.60010672 4
3.2327743 1.9424467 -0.46483472 5
3.2618802 1.9599353 -0.333453 7
3.2440679 1.9492327 -0.20153056 4
3.2481596 1.9516913 -0.066786155 6
4.6123986 2.7714088 1.4387391 5
4.6357231 2.7854235 1.2465906 10
4.6195016 2.7756765 1.0468642 4
4.6143212 2.7725637 0.85054791 5
4.594429 2.7606113 0.6559335 4
4.150022 2.4935849 0.42302766 2
102.71592 61.717949 6.351007 -1
3.2567441 1.9568493 0.066014111 2
3.2099962 1.9150608 -1.0026801 8
3.2212081 1.9217497 -0.86786854 13
3.2366788 1.9309795 -0.73541027 5
3.2226338 1.9226003 -0.5985316 4
3.2218139 1.9221112 -0.46238825 5
3.2423563 1.9343666 -0.33083427 6
3.2416 1.9339154 -0.20099881 3
3.2456884 1.9363545 -0.066609934 5
4.6293793 2.7618544 1.4413221 6
4.6277142 2.7608612 1.2420983 6
4.6113381 2.7510915 1.0430504 4
4.5636306 2.7226293 0.83962345 7
4.1598196 2.4817185 0.59276956 2
4.1492801 2.4754307 0.42215726 2
3.2587945 1.9441736 0.20111522 9
3.2542892 1.9414856 0.065840386 6
3.1993766 1.8951221 -0.99749827 8
3.2272296 1.9116206 -0.86786854 10
3.2258401 1.9107975 -0.73158002 4
3.2201614 1.9074337 -0.59695655 4
3.2363758 1.9170382 -0.46361148 5
3.2484174 1.9241709 -0.33083427 6
3.2476597 1.923722 -0.20099881 3
3.2431533 1.9210528 -0.06643372 4
4.6214089 2.7374504 1.436156 6
4.6279807 2.741343 1.2398522 5
4.6030664 2.7265851 1.0392367 5
4.1642361 2.4666479 0.76471281 2
4.1675954 2.4686379 0.59276956 2
3.2656307 1.9343671 0.33163279 8
3.2562945 1.9288368 0.20058598 7
3.2603724 1.9312525 0.065840386 8
3.2053144 1.8850615 -0.99749827 9
3.2164233 1.8915948 -0.86336011 10
3.2233667 1.8956783 -0.72966486 4
3.2261379 1.8973079 -0.59695655 5
3.2338274 1.9018302 -0.46238825 4
3.2372723 1.9038562 -0.32908842 5
3.2450795 1.9084476 -0.20046708 3
3.2319355 1.9007175 -0.066081285 3
4.6133318 2.7131236 1.4309901 5
4.6281705 2.7218504 1.2376062 5
4.1716027 2.4533405 0.94008017 3
4.180479 2.4585607 0.76627344 13
102.67206 60.381954 14.576301 -1
3.2631044 1.9190482 0.33076239 4
3.2537303 1.9135351 0.20005672 7
3.2578051 1.9159316 0.065666668 7
3.2028799 1.8701124 -0.99490738 9
3.2307634 1.8863932 -0.86561435 9
3.2208304 1.8805934 -0.72774976 4
3.2320826 1.8871634 -0.59695655 4
3.2226443 1.8816526 -0.45994174 4
3.2346349 1.8886536 -0.32821551 4
3.2424355 1.8932084 -0.19993533 3
3.2551594 1.9006376 -0.06643372 7
4.6134896 2.6937459 1.4284071 5
4.1822853 2.4419723 1.1163162 7
4.1623349 2.4303236 0.93626648 3
4.1625924 2.4304738 0.76159149 23
3.2744162 1.9118814 0.46401224 4
3.2605143 1.9037642 0.32989195 4
3.2511022 1.8982686 0.19952747 7
3.263808 1.9056875 0.065666668 6
3.1920269 1.8503532 -0.98972553 8
3.2198162 1.8664621 -0.86110592 10
3.2182312 1.8655434 -0.72583461 4
3.2209082 1.8670952 -0.59380639 4
3.2285399 1.8715191 -0.45994174 5
3.2319336 1.8734864 -0.3273426 5
3.2483673 1.8830127 -0.19993533 3
3.2524643 1.8853875 -0.066257507 6
4.2040334 2.4369931 1.2992563 15
4.1815057 2.4239342 1.1140702 4
101.91322 59.07703 22.882277 -1
3.2900202 1.907158 0.60084575 1
3.2718191 1.8966072 0.46279752 4
3.266479 1.8935117 0.32989195 4
3.2484102 1.8830376 0.19899821 6
3.2611287 1.8904102 0.065492943 6
3.1978242 1.8403162 -0.98972553 8
3.2256639 1.8563375 -0.86110592 9
3.2325828 1.8603194 -0.72774976 5
3.235317 1.8618928 -0.59538144 5
3.2344036 1.8613671 -0.45994174 5
3.2378035 1.8633238 -0.3273426 5
3.2369568 1.8628366 -0.19887185 4
3.2323737 1.860199 -0.065728851 5
4.1614304 2.3948619 1.2837583 1
3.2854033 1.8907169 0.87373644 39
3.2756543 1.8851067 0.73413968 4
102.73232 59.121433 18.727659 -1
3.2691581 1.8813682 0.46158284 3
3.2551429 1.8733025 0.32815111 3
3.262965 1.877804 0.19952747 7
3.2583854 1.8751686 0.065319225 5
3.1952035 1.8254695 -0.98713464 8
3.2230203 1.8413618 -0.85885173 9
3.2128448 1.8355483 -0.72200435 5
3.2240014 1.8419222 -0.59223127 6
3.2229998 1.84135 -0.45749524 4
3.226342 1.8432593 -0.32559678 5
3.2427931 1.8526582 -0.19887185 3
3.2468832 1.8549949 -0.065905072 4
100.65835 57.507683 30.996174 -1
3.2828658 1.8755523 0.87149036 2
3.2815604 1.8748065 0.73413968 3
102.91756 58.798401 18.727659 -1
3.2750525 1.8710885 0.46158284 3
3.252362 1.8581251 0.32728067 4
3.2601776 1.8625902 0.19899821 6
3.255579 1.8599629 0.0651455 5
3.2009227 1.8154225 -0.98713464 8
3.2203147 1.8264209 -0.85659748 9
3.2185955 1.8254458 -0.72200435 5
3.2211821 1.8269129 -0.59065622 4
3.2287688 1.8312156 -0.45749524 6
3.2321167 1.8331144 -0.32559678 6
3.2312253 1.8326088 -0.19780836 3
3.2439978 1.8398528 -0.065728851 4
3.2688487 1.8539472 1.0047927 4
3.2802658 1.8604224 0.86924422 7
3.2703567 1.8548024 0.730326 4
3.2219303 1.827337 0.58523935 1
3.2809145 1.8607904 0.46158284 3
3.2581835 1.8478982 0.32728067 3
3.2486405 1.842486 0.19793972 5
3.2614062 1.8497261 0.0651455 5
3.198194 1.8006191 -0.98454374 9
3.2260368 1.8162949 -0.85659748 10
3.2243145 1.8153253 -0.72200435 5
3.2269058 1.8167841 -0.59065622 6
3.2345057 1.821063 -0.45749524 6
3.2291791 1.8180641 -0.32472387 5
3.228265 1.8175496 -0.19727662 3
3.2497618 1.8296524 -0.065728851 3
3.2830751 1.8484081 1.0073757 9
3.2860942 1.8501079 0.86924422 3
3.2761674 1.8445191 0.730326 4
3.2965117 1.8559731 0.5977245 14
3.2780948 1.8456043 0.46036816 3
3.2552919 1.8327659 0.32641023 3
3.2544129 1.832271 0.19793972 6
3.2672012 1.8394709 0.0651455 7
3.1869726 1.7811388 -0.97936195 9
3.2147179 1.796645 -0.85208911 9
3.2128663 1.7956103 -0.7181741 5
3.2153568 1.7970022 -0.58750606 6
3.2315471 1.8060507 -0.45627198 5
3.2348747 1.8079103 -0.32472387 5
3.2339592 1.8073987 -0.19727662 3
3.2467659 1.8145561 -0.065552637 4
3.2804327 1.8333719 1.0047927 7
3.3003964 1.8445293 0.87149036 3
3.2648079 1.8246394 0.72651225 4
3.2764592 1.8311512 0.59304255 8
3.2752123 1.8304542 0.45915347 3
3.2610335 1.8225302 0.32641023 3
3.251436 1.8171662 0.19741046 5
3.264236 1.8243198 0.064971782 5
3.2009985 1.7758033 -0.98195285 9
3.2203462 1.7865369 -0.85208911 8
3.2184916 1.7855079 -0.7181741 5
3.2209864 1.7868921 -0.58750606 4
3.237205 1.7958895 -0.45627198 6
3.2318273 1.7929062 -0.32385096 4
3.2396214 1.79723 -0.19727662 3
3.2437074 1.7994968 -0.065376416 3
3.2692807 1.8136841 0.99962664 7
3.2891328 1.8246973 0.86699814 6
3.270524 1.8143737 0.72651225 4
3.2821958 1.8208489 0.59304255 6
3.2722669 1.8153406 0.45793876 3
3.2580318 1.8074435 0.32553983 3
3.2571287 1.8069426 0.19741046 7
3.2612078 1.8092055 0.064798057 4
3.2065616 1.7657384 -0.98195285 10
3.2259429 1.7764111 -0.85208911 10
3.2240849 1.7753879 -0.7181741 5
3.2179339 1.7720008 -0.58593094 3
3.2341371 1.7809232 -0.45504874 6
3.2287178 1.7779391 -0.32297805 5
3.227757 1.7774099 -0.19621313 4
3.2405863 1.7844746 -0.065200202 3
3.2665 1.7987444 0.99704361 7
3.2863131 1.8096547 0.86475199 6
3.2676089 1.799355 0.72460544 4
3.2879 1.8105286 0.59304255 5
3.269259 1.8002636 0.45672408 3
3.2462411 1.7875886 0.32379895 3
3.2540419 1.7918842 0.19688122 5
3.2581172 1.7941283 0.064624339 4
3.1866674 1.7417589 -0.9741801 10
3.2229588 1.761595 -0.84983492 9
3.2210343 1.7605431 -0.71625894 4
3.2234848 1.7618825 -0.58593094 14
3.2310071 1.7659941 -0.4538255 5
3.2342873 1.767787 -0.32297805 5
3.2333248 1.7672609 -0.19621313 4
3.2374029 1.7694899 -0.065023988 3
3.2636578 1.7838402 0.99446058 6
3.2748809 1.7899745 0.86025977 6
3.264632 1.7843726 0.72269857 4
3.2675698 1.7859784 0.58836067 4
3.2661886 1.7852235 0.45550939 3
3.2518411 1.7773814 0.32379895 3
3.2508926 1.7768631 0.19635196 6
3.2549641 1.7790884 0.064450614 4
3.1921234 1.7317392 -0.9741801 8
3.2199135 1.7468153 -0.84758067 9
3.217922 1.7457349 -0.71434385 5
3.2376842 1.756456 -0.58750606 10
3.2278154 1.7511022 -0.45260224 5
3.2310688 1.7528671 -0.32210511 6
3.2300835 1.7523326 -0.19568139 3
3.2341576 1.7545427 -0.064847767 4
3.2607543 1.7689716 0.99187756 6
3.2633576 1.770384 0.85576761 6
3.2702215 1.7741077 0.72269857 4
3.2731645 1.7757043 0.58836067 3
3.271781 1.7749536 0.45550939 3
3.2486522 1.7624062 0.32292855 3
3.2476814 1.7618796 0.19582272 5
3.2517486 1.764086 0.064276896 5
3.1975482 1.7217023 -0.9741801 10
3.2253854 1.7366911 -0.84758067 9
3.2320323 1.7402701 -0.71625894 4
3.2257965 1.7369125 -0.58435589 7
3.2245622 1.7362478 -0.451379 5
3.2277884 1.737985 -0.3212322 5
3.2355726 1.7421764 -0.19568139 4
3.2396536 1.7443737 -0.064847767 4
3.2577896 1.7541389 0.98929459 5
3.2689033 1.760123 0.85576761 5
3.2584925 1.7545174 0.71888483 4
3.27003 1.7607298 0.58680004 4
3.2598619 1.7552547 0.45308 3
3.2454016 1.7474687 0.32205811 3
3.2532003 1.751668 0.19582272 6
3.2572746 1.7538617 0.064276896 5
3.1944227 1.7070962 -0.97158921 9
3.2222328 1.7219578 -0.84532648 10
3.2115145 1.7162299 -0.71051353 5
3.2138183 1.7174611 -0.58120573 6
3.2300007 1.726109 -0.451379 5
3.2420185 1.7325312 -0.32210511 4
3.2322228 1.7272964 -0.19514965 4
3.2362995 1.729475 -0.064671554 3
3.2547638 1.7393425 0.98671156 4
3.2744167 1.7498448 0.85576761 5
3.2639883 1.7442719 0.71888483 4
3.2668338 1.7457925 0.58523935 3
3.2653601 1.745005 0.45308 3
3.2508755 1.7372644 0.32205811 3
3.2498801 1.7367325 0.19529347 6
3.2539501 1.7389075 0.064103171 6
3.1915326 1.6919698 -0.96899831 8
3.2193174 1.7066997 -0.8430723 10
3.2258596 1.710168 -0.71242869 5
3.2194958 1.7067943 -0.58120573 7
3.226938 1.7107397 -0.45015574 5
3.2389445 1.7171048 -0.3212322 5
3.2291102 1.7118912 -0.1946179 4
3.2331829 1.7140503 -0.064495333 3
3.260514 1.7285397 0.98671156 5
3.2629826 1.7298484 0.85127538 5
3.2697546 1.7334386 0.71888483 4
3.2726052 1.7349497 0.58523935 4
3.2623589 1.7295178 0.45186532 3
3.2478168 1.7218084 0.32118767 3
3.2467985 1.7212685 0.19476421 6
3.2508647 1.7234242 0.063929453 6
3.1968324 1.6819348 -0.96899831 10
3.2246635 1.6965774 -0.8430723 7
3.2225304 1.6954552 -0.71051353 5
3.2161026 1.6920735 -0.57963061 4
3.2235131 1.6959723 -0.4489325 5
3.2266908 1.6976441 -0.31948638 4
3.2344723 1.7017382 -0.1946179 4
3.2297034 1.6992291 -0.064319119 4
3.2573786 1.7137898 0.98412853 5
3.2770247 1.7241261 0.85352147 4
3.2664967 1.718587 0.71697801 3
3.2692981 1.7200609 0.58367872 3
3.2677763 1.7192602 0.45186532 3
3.2443938 1.7069582 0.32031724 3
3.2433527 1.7064104 0.19423497 6
3.256263 1.7132028 0.063929453 5
3.2021005 1.6718835 -0.96899831 8
3.2127049 1.6774201 -0.83856386 9
3.2191405 1.6807804 -0.70859843 5
3.2214024 1.6819614 -0.57963061 9
3.2288253 1.685837 -0.4489325 4
3.2408388 1.6921095 -0.32035929 5
3.2309506 1.6869466 -0.19408616 3
3.2350256 1.6890743 -0.064319119 3
3.2627466 1.703548 0.98412853 5
3.2651491 1.7048024 0.84902924 5
3.2631779 1.7037733 0.71507114 3
3.2659297 1.70521 0.58211809 4
3.2643626 1.7043917 0.45065063 3
3.2497404 1.6967572 0.32031724 3
3.2398455 1.6915909 0.19370571 6
3.2527661 1.698337 0.063755728 6
3.1901855 1.6529288 -0.96381652 9
3.2179587 1.6673189 -0.83856386 8
3.2156904 1.6661435 -0.70668328 4
3.2266707 1.6718328 -0.57963061 7
3.2252934 1.6711192 -0.44770923 5
3.2372935 1.6773368 -0.31948638 5
3.2273679 1.6721941 -0.19355442 4
3.2225609 1.6697034 -0.063966684 3
3.2595046 1.688845 0.98154551 4
3.2704887 1.6945362 0.84902924 5
3.2685144 1.6935133 0.71507114 4
3.2712708 1.6949414 0.58211809 5
3.2608876 1.6895616 0.44943592 3
3.2462096 1.6819564 0.31944683 3
3.2451437 1.6814042 0.19370571 6
3.2492077 1.6835099 0.063582011 6
3.195076 1.6434561 -0.96381652 8
3.2142279 1.6533073 -0.83630967 8
3.2293477 1.6610845 -0.70859843 7
3.2228353 1.6577348 -0.57805556 4
3.2125859 1.6524627 -0.44526273 4
3.2333975 1.6631676 -0.31861347 5
3.2323153 1.6626109 -0.19355442 3
3.236392 1.6647079 -0.064142905 3
3.2559104 1.6747476 0.97896248 5
3.2668366 1.6803678 0.84678316 4
3.2560658 1.6748276 0.7112574 4
3.2675016 1.6807098 0.58055747 3
3.2658863 1.679879 0.44943592 3
3.242327 1.6677606 0.3185764 3
3.2412381 1.6672007 0.19317646 7
3.2541885 1.673862 0.063582011 6
3.1913362 1.6295764 -0.96122557 8
3.2104423 1.6393327 -0.83405548 8
3.2255208 1.647032 -0.70668328 6
3.2189448 1.6436741 -0.57648045 4
3.2351532 1.6519506 -0.44770923 5
3.238318 1.6535666 -0.31861347 3
3.2372341 1.6530131 -0.19355442 3
3.2324123 1.6505511 -0.063966684 3
3.2522614 1.6606865 0.97637951 4
3.2631295 1.666236 0.84453702 4
3.2697635 1.6696236 0.71316427 3
3.2636771 1.6665157 0.57899684 4
3.2620161 1.6656675 0.44822124 3
3.247261 1.6581331 0.3185764 3
3.2461705 1.6575763 0.19317646 7
3.2591407 1.6641992 0.063582011 5
3.1970048 1.6184267 -0.96122557 7
3.216145 1.6281161 -0.83405548 8
3.2224936 1.6313299 -0.70476818 5
3.215852 1.6279678 -0.5749054 5
3.214335 1.6271998 -0.44403949 5
3.2262945 1.6332541 -0.31686765 4
3.2340751 1.6371928 -0.19302267 3
3.2292335 1.6347419 -0.06379047 3
3.2580383 1.6493238 0.97637951 4
3.260232 1.6504343 0.84229094 4
3.2580552 1.6493324 0.70935059 4
3.2694745 1.6551131 0.57899684 4
3.2589548 1.6497877 0.44700655 4
3.2441411 1.6422886 0.31770596 3
3.2430274 1.6417248 0.1926472 6
3.2470889 1.6437808 0.063234568 6
3.2020736 1.6083751 -0.96122557 9
3.212538 1.6136312 -0.8318013 6
3.218832 1.6167927 -0.70285302 5
3.212126 1.6134244 -0.57333028 4
3.2194312 1.6170937 -0.44403949 5
3.2314095 1.6231103 -0.31686765 4
3.2392025 1.6270247 -0.19302267 4
3.2343533 1.624589 -0.06379047 3
3.254571 1.634744 0.97379649 4
3.2741086 1.6445577 0.84453702 4
3.2632208 1.6390887 0.70935059 4
3.2658315 1.6404002 0.57743621 4
3.2552516 1.6350859 0.44579184 3
3.2581866 1.6365602 0.3185764 3
3.2481689 1.6315285 0.1926472 6
3.2611716 1.6380595 0.063408285 5
3.1898215 1.5896913 -0.95604378 8
3.2088718 1.5991852 -0.82954705 7
3.2238953 1.6066724 -0.70285302 5
3.2260175 1.60773 -0.5749054 4
3.2333784 1.6113985 -0.44526273 5
3.2275767 1.6085072 -0.31599474 4
3.2353606 1.6123862 -0.19249094 4
3.2304924 1.6099602 -0.063614249 3
3.2596905 1.6245115 0.97379649 4
3.261816 1.6255708 0.8400448 4
3.259568 1.6244504 0.70744371 4
3.2709687 1.6301321 0.57743621 4
3.2603724 1.6248512 0.44579184 3
3.2454796 1.6174293 0.31683555 4
3.2443409 1.6168618 0.19211796 6
3.248404 1.6188867 0.063060842 7
3.186142 1.5753814 -0.95345289 7
3.2226133 1.5934145 -0.8318013 10
3.2201288 1.5921861 -0.70093793 4
3.2222002 1.5932103 -0.57333028 5
3.2206314 1.5924346 -0.44281626 5
3.2147543 1.5895288 -0.31424889 5
3.2314587 1.5977881 -0.19195919 4
3.2355344 1.5998033 -0.063614249 4
3.2474582 1.6056992 0.96863043 4
3.266907 1.6153154 0.8400448 6
3.2646554 1.6142023 0.70744371 4
3.2583654 1.6110921 0.57431489 3
3.2565632 1.610201 0.44457716 3
3.2505448 1.6072253 0.31683555 3
3.2494044 1.6066614 0.19211796 6
3.253474 1.6086736 0.063060842 6
3.1910756 1.5653641 -0.95345289 7
3.2101095 1.5747012 -0.82729286 10
3.2074914 1.5734168 -0.69710767 4
3.2094576 1.5743814 -0.57018012 4
3.2256181 1.5823089 -0.44281626 4
3.2286758 1.5838088 -0.3151218 4
3.2274971 1.5832305 -0.19142744 4
3.2405443 1.5896307 -0.063614249 3
3.2524867 1.595489 0.96863043 4
3.2719655 1.6050442 0.8400448 5
3.252084 1.5952915 0.70362997 4
3.2634106 1.6008477 0.57431489 3
3.2616057 1.5999624 0.44457716 3
3.2466342 1.5926181 0.31596512 3
3.2454705 1.5920473 0.19158871 5
3.2585118 1.5984446 0.063060842 6
3.1872928 1.5511049 -0.95086199 8
3.2062805 1.5603453 -0.82503867 8
3.2212439 1.5676273 -0.69902277 5
3.2143879 1.5642908 -0.57018012 4
3.2305732 1.5721675 -0.44281626 5
3.2336357 1.5736578 -0.3151218 4
3.2234759 1.5687135 -0.19089571 4
3.2275414 1.5706921 -0.063261814 4
3.2487965 1.5810359 0.96604747 5
3.2507057 1.581965 0.83330649 6
3.2570796 1.5850669 0.70362997 4
3.2595422 1.5862653 0.57275426 3
3.2576909 1.5853643 0.44336247 3
3.2426639 1.5780514 0.31509468 3
3.241477 1.5774738 0.19105946 5
3.2545269 1.5838245 0.062887125 6
3.1921499 1.5410841 -0.95086199 8
3.2111666 1.5502648 -0.82503867 8
3.217314 1.5532327 -0.69710767 4
3.2103932 1.5498915 -0.56860507 4
3.2176206 1.5533807 -0.44036976 4
3.2206213 1.5548292 -0.31337598 4
3.2283883 1.558579 -0.19089571 4
3.23246 1.5605447 -0.063261814 4
3.2450476 1.5666215 0.96346444 4
3.2644348 1.5759813 0.83555257 5
3.2532029 1.5705589 0.70172316 4
3.2645094 1.5760173 0.57275426 4
3.2537165 1.5708067 0.44214779 3
3.2565768 1.5721877 0.31596512 3
3.2554095 1.5716242 0.19158871 6
3.2594864 1.5735924 0.062887125 5
3.1882646 1.5268763 -0.9482711 9
3.2160211 1.540169 -0.82503867 9
3.2133255 1.5388782 -0.69519252 5
3.2152464 1.5397981 -0.56860507 4
3.2314363 1.5475514 -0.44159299 4
3.2254901 1.5447037 -0.31337598 4
3.2242625 1.5441158 -0.19036396 3
3.2283289 1.5460634 -0.063085601 3
3.24124 1.5522466 0.96088141 4
3.2517927 1.5573002 0.83106041 5
3.258121 1.5603309 0.70172316 4
3.260536 1.5614874 0.57119364 4
3.2586353 1.5605772 0.44214779 3
3.2525151 1.5576462 0.31509468 3
3.2423179 1.5527627 0.19053021 6
3.2463787 1.5547074 0.062539682 5
