# .PCD v0.7 - Point Cloud Data file format
VERSION 0.7
FIELDS x y z intensity
SIZE 4 4 4 4
TYPE F F F F
COUNT 1 1 1 1
WIDTH 1373
HEIGHT 1
VIEWPOINT 0 0 0 1 0 0 0
POINTS 1373
DATA ascii
-0.70011461 4.2017379 -0.8311668 31
-0.9251523 5.5523014 -0.89779741 27
-0.94286072 5.6585784 -0.7070381 6
-0.95455533 5.7287641 -0.50890863 6
-0.98475891 5.9100304 -0.31904575 7
-1.104321 6.6275826 -0.11841767 5
-1.3845737 8.3095188 2.2523887 8
-1.3933867 8.3624105 1.9541149 7
-1.3972322 8.3854895 1.6513376 3
-1.3994149 8.3985882 1.3452703 3
-1.4062837 8.4398117 1.0470642 3
-1.40976 8.4606752 0.74943793 3
-1.4147891 8.4908562 0.45621401 3
-1.4149175 8.4916277 0.14957407 1
-0.42832026 2.6213331 -0.71249878 29
-0.43362021 2.653769 -0.62216032 34
-0.65367341 4.0005012 -0.79094905 21
-0.90929717 5.5649266 -0.89937252 45
-0.92187816 5.6419225 -0.70459157 7
-0.93334037 5.7120714 -0.50716281 4
-0.97262841 5.9525156 -0.32117271 6
-1.0802698 6.6112843 -0.11806523 5
-1.3569039 8.3042936 2.2498057 7
-1.3671086 8.3667469 1.9541149 7
-1.3692986 8.3801489 1.6494308 3
-1.3714303 8.3931952 1.3437096 3
-1.3797624 8.4441881 1.0470642 2
-1.3831731 8.4650621 0.74943793 3
-1.3881073 8.4952593 0.45621401 3
-19.3482 118.41158 2.084656 -1
-0.42008299 2.6226659 -0.71249878 18
-0.42219928 2.6358781 -0.61765188 19
-0.62092227 3.8765473 -0.76605237 35
0.1 0.1 0.1 -1
-0.90100962 5.6251912 -0.7021451 6
-0.91696632 5.724812 -0.50803572 5
-0.9602406 5.9949827 -0.32329968 6
-1.0642385 6.6442633 -0.11859388 5
-1.3292806 8.2989759 2.2472227 7
-1.340817 8.3710003 1.9541149 7
-1.3429648 8.3844099 1.6494308 3
-1.3450555 8.3974619 1.3437096 3
-1.3516575 8.4386797 1.0458496 3
-1.3565726 8.4693661 0.74943793 3
-1.3614118 8.4995785 0.45621401 3
-18.976105 118.47178 2.084656 -1
-0.41034397 2.6144309 -0.70990783 23
-0.41240573 2.6275668 -0.61539769 34
-0.40481257 2.5791883 -0.50942481 39
-0.41189224 2.6242952 -0.42369738 19
-0.88333315 5.6279941 -0.7021451 5
-0.90206605 5.7473474 -0.50978154 11
-0.94759554 6.0374298 -0.32542667 6
-1.0542119 6.7167163 -0.1198274 6
-1.303202 8.3031111 2.2472227 7
-1.3130013 8.3655443 1.9518689 7
-1.3166178 8.388587 1.6494308 3
-1.3186675 8.4016466 1.3437096 3
-1.323601 8.4330788 1.0446348 2
-1.3299587 8.4735851 0.74943793 3
-1.3331546 8.493948 0.45568475 3
-1.3255222 8.4453201 0.14853175 1
-0.40212849 2.6157072 -0.70990783 19
-0.39378616 2.5614431 -0.59961826 15
-0.3907423 2.5416439 -0.5017643 18
-0.40664682 2.6450973 -0.42684755 50
-0.86263174 5.6111217 -0.69969863 6
-0.93244451 6.0652294 -0.53771478 5
-0.93621057 6.0897264 -0.32808536 5
-1.0315863 6.7101126 -0.11965118 5
-1.2756428 8.297616 2.2446396 8
-1.2867136 8.369628 1.9518689 8
-1.2872746 8.3732767 1.645617 3
-1.2922665 8.4057474 1.3437096 3
-1.2971011 8.4371958 1.0446348 2
-1.3003041 8.4580288 0.74769706 2
-1.3064635 8.4980946 0.45568475 3
-1.3111383 8.5285015 0.14992151 8
-0.3924714 2.6074066 -0.70731694 20
-0.38428709 2.5530334 -0.59736407 14
-0.38567737 2.5622699 -0.50559455 25
-0.39539528 2.6268313 -0.42369738 10
-0.84499967 5.6138043 -0.69969863 5
-0.91931653 6.1075325 -0.54120642 6
-0.92896527 6.1716347 -0.33233932 8
-1.0134772 6.7330947 -0.12000362 5
-1.2495688 8.3015823 2.2446396 8
-1.258963 8.3639936 1.9496228 8
-1.2609628 8.3772802 1.645617 3
-1.2643825 8.3999987 1.342149 3
-1.2705886 8.4412289 1.0446348 3
-1.2752088 8.4719238 0.74856746 2
-1.2782732 8.4922819 0.45515549 3
-1.2813623 8.512804 0.14957407 5
-0.38146287 2.5895159 -0.70213515 23
-0.37768447 2.5638666 -0.59961826 36
-0.37619546 2.5537589 -0.50367945 11
-0.39001927 2.6476002 -0.42684755 31
-0.82735926 5.6164312 -0.69969863 6
-0.91319096 6.1990895 -0.54906267 8
-0.91830385 6.233798 -0.33552977 5
-0.98940533 6.7164621 -0.11965118 9
-1.2220745 8.2959099 2.2420566 7
-1.2312604 8.3582668 1.9473766 8
-1.2346387 8.3811998 1.645617 3
-1.2365475 8.3941574 1.3405883 3
-1.2440635 8.445179 1.0446348 2
-1.2471354 8.466032 0.74769706 2
-1.2515876 8.4962559 0.45515549 3
-1.2531551 8.506896 0.14940035 3
-0.37470338 2.6002612 -0.70472604 22
-0.36823842 2.5553975 -0.59736407 16
-0.37097055 2.5743573 -0.50750971 25
-0.38029119 2.6390381 -0.42527246 6
0.1 0.1 0.1 -1
-0.90081567 6.2512279 -0.55342722 5
-0.90726095 6.2959547 -0.33872023 7
-0.96544796 6.6997447 -0.11929875 5
-1.1973841 8.3092699 2.2446396 8
-1.2049961 8.3620939 1.9473766 9
-1.2069023 8.3753214 1.6437101 3
-1.2115792 8.4077768 1.342149 3
-1.2161103 8.4392214 1.0434202 3
-1.2205324 8.4699087 0.74769706 2
-1.2234654 8.490262 0.45462626 3
-1.2264237 8.5107908 0.14940035 3
-0.36653256 2.6014256 -0.70472604 21
-0.36156785 2.5661891 -0.59961826 31
-0.3574037 2.5366342 -0.49984917 10
-0.37062079 2.6304412 -0.42369738 17
-0.58711702 4.1669998 -0.51865768 95
-0.89090151 6.3230777 -0.55953765 24
-0.89305001 6.3383265 -0.34084719 8
-0.94300038 6.6928439 -0.11912253 6
-1.1685781 8.2938585 2.2394736 7
-1.1787199 8.3658381 1.9473766 7
-1.1792148 8.3693504 1.6418033 7
-1.1837813 8.4017611 1.3405883 3
-1.1895918 8.4429998 1.0434202 3
-1.1939175 8.4737015 0.74769706 3
-1.1967865 8.4940634 0.45462626 3
-1.1982853 8.5047016 0.14922662 3
-0.35572317 2.5834277 -0.69954425 25
-0.35217521 2.5576608 -0.59736407 23
-0.35211051 2.5571909 -0.50367945 19
-0.36235517 2.6315925 -0.42369738 8
-0.56860781 4.1294951 -0.51376468 31
-16.306383 118.42456 -10.474963 -1
-16.345707 118.71016 -6.3809147 -1
-0.92606115 6.7254882 -0.11965118 9
-1.1425165 8.2974882 2.2394736 7
-1.1497736 8.350193 1.9428844 7
-1.152916 8.3730145 1.6418033 3
-1.1560333 8.3956528 1.3390276 3
-1.1630615 8.4466953 1.0434202 2
-1.1659318 8.4675407 0.74682665 3
-1.1687336 8.4878893 0.454097 3
-1.1715611 8.5084238 0.14922662 6
-0.34631792 2.5749602 -0.69695336 26
-0.34673563 2.5780659 -0.60187244 25
-0.34276685 2.548557 -0.5017643 16
-0.35671863 2.652292 -0.42684755 15
-0.55166304 4.1017523 -0.51009494 57
-0.54840416 4.0775218 -0.36051333 36
-0.56436831 4.1962194 -0.22545899 17
-0.92491889 6.8770027 -0.12229443 27
-1.1151559 8.2914619 2.2368906 7
-1.123535 8.3537636 1.9428844 7
-1.1266057 8.3765945 1.6418033 2
-1.1296519 8.3992434 1.3390276 3
-1.1351966 8.4404697 1.0422055 3
-1.1379967 8.4612894 0.74595618 3
-1.1500489 8.5508995 0.4572725 12
-1.1528218 8.5715179 0.15026896 17
-0.33571205 2.5568829 -0.69177151 21
-0.3360981 2.559823 -0.59736407 21
-0.33220324 2.5301585 -0.49793404 19
-0.34709892 2.6436086 -0.42527246 16
-0.53231418 4.0542626 -0.50397873 43
-0.53559154 4.0792246 -0.36051333 27
-0.55248272 4.2078724 -0.22599073 14
-0.93845284 7.1475353 -0.12705229 12
-1.089102 8.2949247 2.2368906 7
-1.0960169 8.3475904 1.9406383 7
-1.0990064 8.3703594 1.6398965 3
-1.1019735 8.3929577 1.3374671 4
-1.1086745 8.4439945 1.0422055 4
-1.1230808 8.5537176 0.75379008 11
-1.1426793 8.7029858 0.46521127 12
-1.1402056 8.684145 0.1521799 2
-0.32767773 2.5579247 -0.69177151 21
-0.32929248 2.5705299 -0.59961826 20
-0.32550001 2.540925 -0.49984917 19
-0.34004685 2.6544809 -0.42684755 18
-0.51705253 4.0362263 -0.5015322 34
-0.51644468 4.0314813 -0.35614875 67
-0.53799176 4.1996827 -0.22545899 11
-0.91980493 7.1802006 -0.12758094 13
-1.0630374 8.2983055 2.2368906 7
-1.0697868 8.3509932 1.9406383 7
-1.0751995 8.3932447 1.6437101 4
-1.0793661 8.4257708 1.342149 11
-1.0947539 8.5458908 1.0543524 12
-1.1126589 8.6856604 0.76510561 10
-1.130559 8.8253937 0.47156227 11
-1.1319748 8.8364458 0.15478571 5
-0.31919354 2.5589974 -0.69177151 20
-0.32076648 2.5716078 -0.59961826 30
-0.31464255 2.5225117 -0.49601892 19
-0.3300201 2.6457949 -0.42527246 17
-0.50243658 4.02807 -0.50030899 36
-0.50183994 4.0232868 -0.35527584 25
-0.52406216 4.2014437 -0.22545899 12
-0.89970213 7.212976 -0.12810959 7
-1.0343177 8.2921982 2.2343075 7
-1.0432942 8.3641644 1.9428844 24
-1.0582958 8.4844341 1.6608719 13
-1.0685354 8.5665245 1.3639979 16
-1.086066 8.7070684 1.0737875 15
-1.1023457 8.8375845 0.778162 8
-1.1185908 8.9678221 0.47897178 8
-1.1199917 8.9790535 0.15721782 4
-0.30882192 2.5408115 -0.68658972 28
-0.31268597 2.5726027 -0.59961826 19
-0.30790052 2.533231 -0.49793404 19
-0.322898 2.6566215 -0.42684755 21
-0.48858207 4.0197763 -0.49908572 28
-0.48799601 4.0149546 -0.35440293 27
-0.51086032 4.2030692 -0.22545899 13
-14.476547 119.10482 -2.1146011 -1
-1.0187525 8.3817177 2.2575548 36
-1.0369998 8.531846 1.9810683 45
-1.0494025 8.6338882 1.6894747 17
-1.0583026 8.7071133 1.3858469 4
-1.0730782 8.8286791 1.0883638 5
-1.0914041 8.979454 0.79034799 15
-1.1072804 9.110075 0.48638129 7
-1.1086671 9.1214838 0.15964991 5
-0.30197346 2.5513608 -0.68918061 25
-0.30574751 2.5832477 -0.60187244 23
-0.30109426 2.5439327 -0.49984917 23
-0.3145504 2.6576228 -0.42684755 18
-0.47361809 4.0015793 -0.49663922 25
-0.47186762 3.9867892 -0.3517842 32
-0.49530607 4.1848202 -0.2243955 12
-1.1046799 9.3333941 -0.16564375 1
-1.0105834 8.5383759 2.298883 32
-1.0262259 8.6705389 2.0125139 17
-1.0407341 8.7931185 1.7199844 9
-1.0471969 8.8477211 1.4076958 9
-1.0651703 8.9995775 1.1090136 6
-1.0795817 9.1213398 0.80253398 6
-1.0986081 9.282093 0.49537855 6
-1.1023344 9.3135767 0.16295062 3
-0.29285154 2.5427017 -0.68658972 22
-0.29763049 2.5841954 -0.60187244 23
-0.29197779 2.5351155 -0.49793404 22
-0.3050698 2.6487875 -0.42527246 20
-0.45990887 3.9931877 -0.49541596 29
-0.45934042 3.9882519 -0.3517842 21
-0.48215666 4.1863556 -0.2243955 12
-1.0845048 9.4162807 -0.16705349 43
-1.0036504 8.7142582 2.3453772 25
-1.0190505 8.8479691 2.0529437 25
-1.0310755 8.9523773 1.7504941 9
-1.036348 8.9981565 1.4311054 9
-1.0527918 9.1409302 1.1260192 6
-1.0668784 9.2632389 0.81471997 5
-1.0740125 9.325181 0.49749553 3
-1.0765016 9.3467922 0.16347177 5
-0.28378701 2.5340106 -0.68399882 21
-0.28951055 2.5851176 -0.60187244 23
-0.28401208 2.5360203 -0.49793404 23
-0.29784596 2.6595469 -0.42684755 17
-0.44736165 3.9946127 -0.49541596 27
-0.44570002 3.9797754 -0.35091126 24
-0.46900249 4.1878495 -0.2243955 12
-1.0526918 9.3997688 -0.16670106 23
-0.99347186 8.8709784 2.3867054 19
-1.0086011 9.0060701 2.0888815 27
-1.0215187 9.1214161 1.7829107 7
-1.0256635 9.1584253 1.4560755 8
-1.0373261 9.2625647 1.1405956 4
-1.0410981 9.2962456 0.81733125 2
-13.33674 119.08735 6.351007 -1
-1.0471325 9.3501282 0.16347177 1
-0.27478001 2.5252879 -0.68140793 23
-0.28138775 2.5860145 -0.60187244 20
-0.27710524 2.5466573 -0.49984917 22
-0.2905575 2.6702867 -0.42842263 38
-0.43266281 3.9762652 -0.49296945 24
-0.43103981 3.9613492 -0.34916544 24
-0.45584369 4.1893024 -0.2243955 19
-1.0220748 9.3930893 -0.16652484 16
-0.98754346 9.075738 2.4409487 18
-0.99927628 9.1835661 2.1293116 8
-1.0034767 9.2221689 1.8019793 3
-1.0054343 9.240159 1.4685607 3
-1.0092956 9.2756453 1.1418102 3
-1.011888 9.2994709 0.81733125 2
-1.0143197 9.3218174 0.4969663 3
-1.017753 9.3533716 0.16347177 6
-0.26684526 2.5261388 -0.68140793 21
-0.27530909 2.6062632 -0.60638088 19
-0.26910332 2.5475154 -0.49984917 21
-0.28112978 2.6613657 -0.42684755 17
-0.39410383 3.730855 -0.46238825 109
-0.41649979 3.9428704 -0.34741962 52
-0.44268036 4.1907134 -0.2243955 24
-0.99151027 9.3863115 -0.16634862 19
-0.96511537 9.1364393 2.4564469 8
-0.97246766 9.2060413 2.1338036 30
-12.374598 117.14636 22.882277 -1
-0.97951335 9.2727404 1.4732426 8
-0.98015034 9.2787704 1.1418102 3
-0.98266792 9.3026037 0.81733125 2
-12.588234 119.16879 6.351007 -1
-0.98731327 9.3465796 0.16329806 1
-0.25989228 2.5365727 -0.68399882 18
-0.26513389 2.5877314 -0.60187244 20
-0.2640999 2.5776396 -0.50559455 21
-0.273774 2.6720595 -0.42842263 33
-0.36619562 3.5741034 -0.44281626 42
-0.36755812 3.5874014 -0.31599474 97
-0.42951268 4.1920838 -0.2243955 17
-0.96099836 9.3794336 -0.1661724 20
-0.93936169 9.1682568 2.464196 18
-0.9425481 9.199357 2.1315575 5
-0.94551277 9.2282925 1.8019793 3
-0.9463504 9.2364674 1.467 3
-0.95200711 9.2916775 1.1430249 2
-0.9524228 9.2957344 0.81646085 2
-0.9547115 9.3180723 0.49643704 3
-0.95794529 9.3496351 0.16329806 6
-0.25001365 2.5181541 -0.67881697 14
-0.25796556 2.5982466 -0.60412669 17
-0.25503102 2.5686896 -0.50367945 19
-0.26440248 2.6630795 -0.42684755 15
-0.35202375 3.5456071 -0.43914649 51
-0.35530195 3.5786252 -0.3151218 26
-0.41634077 4.1934123 -0.2243955 13
-0.93152732 9.3824062 -0.1661724 17
-0.90673631 9.1327095 2.4538639 9
-0.91460562 9.2119694 2.1338036 12
-11.638306 117.2218 22.882277 -1
-0.91830444 9.2492237 1.4685607 3
-0.92085046 9.274868 1.1405956 2
-0.92321473 9.2986813 0.81646085 2
-0.92641985 9.3309631 0.4969663 10
-0.92856789 9.3525982 0.16329806 3
-0.24302545 2.5285416 -0.68140793 10
-0.24980167 2.5990441 -0.60412669 12
-0.24696 2.569478 -0.50367945 16
-0.25697964 2.6737268 -0.42842263 40
-0.33898413 3.5269368 -0.43669999 39
-0.34024537 3.5400593 -0.31163016 65
-0.40412012 4.2046394 -0.22492725 13
-0.9010905 9.3753338 -0.16599619 10
-0.8789649 9.1451292 2.4564469 8
-0.88472861 9.2050972 2.1315575 9
-0.88657224 9.2242794 1.8000724 3
-0.88924265 9.2520638 1.4685607 10
-0.89265776 9.2875957 1.1418102 2
-0.89399755 9.3015356 0.81646085 3
-0.89614582 9.3238869 0.49643704 7
-0.89822471 9.3455172 0.16312434 3
-0.23686831 2.5485265 -0.68658972 39
-0.24163531 2.5998161 -0.60412669 8
-0.24070317 2.5897868 -0.50750971 17
-0.24857864 2.674521 -0.42842263 11
-0.32514679 3.4983373 -0.43303025 37
-0.32543463 3.5014343 -0.30813852 36
-0.38998473 4.1959453 -0.2243955 13
-0.86978203 9.3582067 -0.16564375 13
-0.84933633 9.1382265 2.4538639 10
-0.85580564 9.2078314 2.1315575 8
-10.901555 117.29262 22.882277 -1
-0.859258 9.244976 1.467 2
-0.86347556 9.2903538 1.1418102 3
-0.86384958 9.2943783 0.81559038 3
-0.8668496 9.3266563 0.49643704 6
-0.86886054 9.3482924 0.16312434 4
-0.22713347 2.5300186 -0.68140793 20
-0.2343377 2.610266 -0.60638088 21
-0.23256594 2.5905302 -0.50750971 15
-0.24105816 2.6851244 -0.42999771 22
-0.31237996 3.4795713 -0.43058375 40
-0.31265149 3.4825957 -0.30639267 38
-0.37680089 4.1971498 -0.2243955 15
-0.84037811 9.3608932 -0.16564375 12
-0.82062358 9.1408491 2.4538639 9
-0.8260029 9.2007694 2.1293116 7
-0.82771951 9.2198906 1.7981656 3
-0.83020985 9.2476301 1.467 8
-0.83339727 9.2831345 1.1405956 3
-0.83464622 9.2970467 0.81559038 3
-0.83665192 9.3193874 0.49590778 5
-0.83769971 9.3310595 0.16277689 3
-0.21918407 2.5307195 -0.68140793 27
-0.22613618 2.6109893 -0.60638088 21
-0.2244264 2.591248 -0.50750971 12
-0.23176932 2.6760302 -0.42842263 16
-0.30059066 3.4706476 -0.42936051 31
-0.3008495 3.4736359 -0.30551976 35
-0.36361331 4.1983128 -0.2243955 21
-0.8109659 9.3634872 -0.16564375 11
-0.79106915 9.1337576 2.4512808 10
-0.79709381 9.2033186 2.1293116 7
-10.164373 117.3588 22.882277 -1
-0.79944891 9.2305117 1.4638788 2
-0.80422938 9.2857075 1.1405956 3
-0.80543464 9.2996225 0.81559038 3
-0.80737013 9.32197 0.49590778 4
-0.80924398 9.343606 0.16295062 3
-0.21283884 2.5506458 -0.68658972 34
-0.2179324 2.6116867 -0.60638088 23
-0.21710083 2.6017213 -0.50942481 17
-0.22418238 2.6865859 -0.42999771 13
-0.28803521 3.4517937 -0.42691401 37
-0.2874501 3.444782 -0.30290103 25
-0.34959176 4.1894832 -0.22386377 15
-0.7815457 9.3659887 -0.16564375 17
-0.76237077 9.136198 2.4512808 9
-0.76736653 9.1960669 2.1270654 8
-0.76977324 9.2249088 1.7981656 3
-0.77126789 9.2428207 1.4654394 7
-0.77422816 9.2782965 1.1393808 3
-0.77538669 9.2921801 0.81471997 2
-0.77808034 9.324461 0.49590778 3
-0.77905476 9.3361378 0.16277689 3
-0.20637056 2.5705571 -0.69177151 25
-0.21050614 2.6220698 -0.60863507 28
-0.20892623 2.6023905 -0.50942481 24
-0.21574113 2.6872771 -0.42999771 14
-0.27639544 3.4427886 -0.42569077 29
-0.27503222 3.4258084 -0.30115521 26
-0.33802664 4.2104688 -0.22492725 12
-0.75211775 9.3683977 -0.16564375 15
-0.73366481 9.1385479 2.4512808 10
-0.73847246 9.198432 2.1270654 8
-9.4267902 117.42034 22.882277 -1
-0.74143654 9.2353525 1.4638788 1
-0.74507576 9.2806826 1.1393808 3
-0.74619067 9.29457 0.81471997 2
-0.74798375 9.316905 0.49537855 4
-0.74972063 9.3385401 0.16277689 3
-0.19829391 2.5711927 -0.69177151 29
-0.20151851 2.6130044 -0.60638088 25
-0.19999486 2.5932481 -0.50750971 17
-0.20805708 2.6977875 -0.43157279 21
-0.26481509 3.4337444 -0.4244675 28
-0.26503438 3.4365878 -0.30202812 38
-0.32402959 4.2015533 -0.2243955 13
-9.2257328 119.62614 -2.1146011 -1
-0.70420885 9.131176 2.4486978 9
-0.70882183 9.1909914 2.1248193 8
-0.71104181 9.2197762 1.7962587 3
-0.71165967 9.227788 1.4623182 5
-0.7151528 9.2730808 1.1381661 2
-0.71698725 9.2968683 0.81471997 3
-0.71871018 9.3192091 0.49537855 14
-0.72037911 9.3408489 0.16277689 15
-0.19092773 2.5814352 -0.6943624 25
-0.19330852 2.6136248 -0.60638088 26
-0.19329487 2.61344 -0.51133996 20
-0.19958071 2.6984277 -0.43157279 15
-0.25402638 3.4345593 -0.4244675 25
-0.25276715 3.4175341 -0.30028227 35
-0.31082845 4.2025509 -0.2243955 11
-0.6784901 9.1735144 -0.16211942 1
-0.67551899 9.1333427 2.4486978 9
-0.67994404 9.1931725 2.1248193 9
-8.6888351 117.47726 22.882277 -1
-0.68339485 9.2398281 1.4638788 1
-0.68674916 9.285181 1.1393808 3
-0.6877768 9.2990751 0.81471997 3
-0.67764443 9.1620808 0.48691052 22
-8.8499098 119.65506 2.084656 -1
-0.18281698 2.5820222 -0.6943624 20
-0.18647282 2.6336558 -0.61088926 28
-0.18439037 2.604244 -0.50942481 18
-0.19110239 2.6990414 -0.43157279 18
-0.24253419 3.4254403 -0.42324427 30
-0.24202943 3.4183114 -0.30028227 26
-0.29903477 4.2234282 -0.22545899 11
-8.4739227 119.68175 -2.1146011 -1
-0.64682245 9.1354198 2.4486978 9
-0.65037131 9.1855431 2.1225731 9
-0.651712 9.2044783 1.7924449 3
-0.65366614 9.2320766 1.4623182 7
-0.65687454 9.2773914 1.1381661 3
-0.65785599 9.2912521 0.81384957 3
-0.64321536 9.0844755 0.48267654 1
-0.64472705 9.1058264 0.15860759 1
-0.17600819 2.6018569 -0.69954425 33
-0.17688292 2.6147876 -0.60638088 17
-0.17554556 2.5950179 -0.50750971 16
-0.18195567 2.6897759 -0.42999771 19
-0.23177166 3.4261854 -0.42324427 23
-0.2299446 3.3991766 -0.29853645 25
-0.28576502 4.2243471 -0.22545899 11
-0.62421232 9.2274752 -0.16300051 30
-0.61746752 9.1277685 2.4461148 9
-0.6221686 9.1972628 2.1248193 8
-7.9505372 117.52953 22.882277 -1
-0.62399286 9.2242298 1.4607575 2
-0.62705564 9.2695065 1.1369514 3
-0.62866342 9.293273 0.81384957 3
-8.0877962 119.55857 6.351007 -1
-8.0979252 119.70831 2.084656 -1
-0.16845497 2.6120355 -0.70213515 27
-0.1699215 2.6347754 -0.61088926 31
-0.16865554 2.6151457 -0.51133996 16
-0.17477569 2.7100437 -0.43314788 14
-0.22036812 3.4169922 -0.422021 24
-0.21926466 3.3998823 -0.29853645 23
-0.27249244 4.225224 -0.22545899 11
-0.60101169 9.31919 -0.16458645 1
-0.58816701 9.1200228 2.4435318 10
-0.59264439 9.1894484 2.1225731 8
-0.59386605 9.2083912 1.7924449 3
-0.59501106 9.2261448 1.4607575 6
-0.59793156 9.27143 1.1369514 3
-0.59882355 9.2852612 0.8129791 3
-0.60026258 9.3075743 0.49432003 5
-0.60101432 9.3192301 0.16225573 4
-0.16143084 2.6318326 -0.70731694 27
-0.16104682 2.6255717 -0.60863507 28
-0.15983811 2.6058662 -0.50942481 11
-0.16444723 2.6810093 -0.42842263 16
-0.20963225 3.4176676 -0.422021 25
-0.20797266 3.3906112 -0.29766354 23
-0.25982857 4.2360263 -0.22599073 12
-0.57540447 9.3809099 -0.16564375 32
-0.56010425 9.1314678 2.4461148 9
-0.56377202 9.1912642 2.1225731 9
-7.2119255 117.57716 22.882277 -1
-0.56541866 9.2181101 1.4591968 1
-0.56880164 9.273263 1.1369514 3
-0.57026005 9.29704 0.81384957 3
-0.57101905 9.3094139 0.49432003 4
-0.57234627 9.3310518 0.16242945 3
-0.15372294 2.641969 -0.70990783 23
-0.15279756 2.6260648 -0.60863507 29
-0.15165077 2.6063554 -0.50942481 9
-0.15774465 2.7110882 -0.43314788 10
-0.19831781 3.4084013 -0.42079777 22
-0.19731973 3.3912477 -0.29766354 18
-0.24593939 4.2268524 -0.22545899 12
-0.54476911 9.3627081 -0.16529132 18
-0.53029186 9.1138935 2.4409487 10
-0.53489405 9.1929903 2.1225731 9
-0.53599668 9.2119408 1.7924449 3
-0.5370301 9.229701 1.4607575 4
-0.5390895 9.2650948 1.1357367 3
-0.54047114 9.2888403 0.8129791 3
-0.54176986 9.311162 0.49432003 3
-0.54302913 9.3328047 0.16242945 3
-0.14648369 2.6617267 -0.71508968 25
-0.14508215 2.6362598 -0.61088926 21
-0.14346193 2.6068189 -0.50942481 10
-0.14922675 2.7115705 -0.43314788 9
-0.18706366 3.3990977 -0.4195745 24
-0.18666485 3.3918509 -0.29766354 27
-0.23320787 4.2375751 -0.22599073 11
-0.51480323 9.3543901 -0.1651151 15
-0.50218797 9.1251612 2.4435318 9
-0.50601083 9.1946259 2.1225731 9
-6.4730291 117.62016 22.882277 -1
-0.50748879 9.2214804 1.4591968 1
-0.50997972 9.2667427 1.1357367 3
-0.51073933 9.2805452 0.8121087 3
-0.51306409 9.3227882 0.49484929 4
-0.51370662 9.3344641 0.16242945 4
-0.13862136 2.6718194 -0.71768057 21
-0.1362946 2.6269729 -0.60863507 22
-0.13476314 2.597455 -0.50750971 9
-0.14019571 2.7021639 -0.43157279 10
-0.17689842 3.40958 -0.42079777 23
-0.17652428 3.402369 -0.29853645 16
-0.2204114 4.2482591 -0.22652248 12
-0.4859311 9.3659458 -0.16529132 12
-0.47301745 9.1170454 2.4409487 9
-0.47661775 9.1864386 2.120327 11
-0.47759753 9.2053232 1.7905381 3
-0.47902796 9.232893 1.4607575 6
-0.48086491 9.2682991 1.1357367 3
-0.48158115 9.2821045 0.8121087 3
-0.4832558 9.3143816 0.49432003 3
-0.48437908 9.3360319 0.16242945 4
-0.12976052 2.6722643 -0.71768057 24
-0.12805502 2.6371417 -0.61088926 23
-0.12710099 2.6174943 -0.51133996 9
-0.1317132 2.7124777 -0.43314788 10
-0.1651095 3.4002347 -0.4195745 21
-0.16524066 3.4029357 -0.29853645 56
-0.20632245 4.2489667 -0.22652248 11
-0.45389998 9.3475332 -0.1649389 11
-0.44278166 9.1185646 2.4409487 9
-0.44615179 9.1879683 2.120327 8
-5.7133412 117.65951 22.882277 -1
-0.44792888 9.2245655 1.4591968 1
-0.45012748 9.2698431 1.1357367 3
-0.45079795 9.2836504 0.8121087 3
-0.45236555 9.3159332 0.49432003 4
-0.45244715 9.3176136 0.162082 4
-0.12136473 2.6726589 -0.71768057 32
-0.12065349 2.656996 -0.61539769 24
-0.11887727 2.6178808 -0.51133996 9
-0.12319107 2.712878 -0.43314788 21
-0.15442654 3.4007366 -0.4195745 20
-0.15364543 3.3835349 -0.29679063 21
-0.19342592 4.2595696 -0.22705422 10
-0.4249852 9.358901 -0.1651151 12
-0.41413271 9.1199102 2.4409487 9
-0.41728479 9.1893244 2.120327 9
-0.41769731 9.1984091 1.7886312 3
-0.41894689 9.2259274 1.4591968 5
-0.42055297 9.2612953 1.1345221 3
-0.42163032 9.2850208 0.8121087 3
-0.42264351 9.307333 0.49379081 4
-0.42362636 9.3289766 0.16225573 4
-0.1146628 2.7019567 -0.72545326 24
-0.11194335 2.6378746 -0.61088926 27
-0.11110935 2.618222 -0.51133996 11
-0.14444995 3.4038723 -0.54340369 10
-0.14433569 3.4011798 -0.4195745 18
-0.14445035 3.4038815 -0.29853645 27
-0.18078668 4.2601247 -0.22705422 12
-0.39721495 9.3601208 -0.1651151 9
-0.38666201 9.1114473 2.4383657 9
-0.38960457 9.1807861 2.1180809 9
-4.9944983 117.69221 22.882277 -1
-0.39157122 9.227129 1.4591968 1
-0.39349318 9.2724199 1.1357367 3
-0.3940793 9.286231 0.8121087 3
-0.39502627 9.3085461 0.49379081 4
-0.39552099 9.3202038 0.162082 3
-0.10740719 2.7215869 -0.73063511 22
-0.10450033 2.6479304 -0.6131435 26
-0.10334045 2.61854 -0.51133996 10
-0.13434984 3.4042859 -0.54340369 9
-0.13385218 3.3916759 -0.41835126 19
-0.13395737 3.3943412 -0.29766354 28
-0.16814587 4.2606425 -0.22705422 11
-0.36865264 9.3412762 -0.16476268 11
-0.35962614 9.1125536 2.4383657 10
-0.36236295 9.1819019 2.1180809 8
-0.3631058 9.2007256 1.7886312 3
-0.36458158 9.2381201 1.4607575 9
-0.36558825 9.263628 1.1345221 3
-0.36652479 9.2873592 0.8121087 3
-0.36701179 9.2996988 0.49326155 4
-0.36786568 9.3213358 0.162082 6
-0.097559236 2.7122931 -0.72804421 22
0.1 0.1 0.1 -1
-0.094199412 2.6188848 -0.51133996 11
-0.12246584 3.4047341 -0.54340369 6
-0.12201221 3.3921225 -0.41835126 17
-0.12246618 3.4047434 -0.29853645 22
-0.15363137 4.2711825 -0.22758596 9
-0.33640265 9.3524981 -0.1649389 9
-0.3278152 9.1137543 2.4383657 9
-0.33030993 9.1831112 2.1180809 8
-4.2343764 117.72201 22.882277 -1
-0.33197725 9.2294655 1.4591968 2
-0.33324993 9.2648478 1.1345221 2
-0.33374554 9.2786264 0.81123823 3
-0.33454752 9.3009233 0.49326155 3
-0.33496651 9.3125715 0.16190828 3
-0.08903785 2.7125862 -0.72804421 55
-0.11122748 3.3886054 -0.78446299 12
0.1 0.1 0.1 -1
-0.11176897 3.405102 -0.54340369 10
-0.11168056 3.4024086 -0.4195745 14
-0.11209609 3.4150679 -0.29940936 20
-0.14053993 4.2816248 -0.2281177 9
-0.30669129 9.3435163 -0.16476268 7
-0.29918191 9.1147385 2.4383657 10
-0.30145875 9.184103 2.1180809 9
-0.30175471 9.19312 1.7867244 3
-0.30298045 9.230463 1.4591968 9
-0.30414197 9.2658491 1.1345221 3
-0.30459428 9.2796288 0.81123823 3
-0.30532622 9.3019285 0.49326155 3
-0.30603662 9.3235703 0.162082 4
-0.10286511 3.4658864 -0.93013471 27
0.1 0.1 0.1 -1
-0.10074525 3.3944609 -0.66263527 26
-0.10136395 3.4153073 -0.5449788 25
-0.10128548 3.4126632 -0.42079777 15
-0.10166233 3.4253607 -0.30028227 13
-0.12738438 4.2920265 -0.22864945 9
-0.27703971 9.3344393 -0.16458645 10
-0.27025908 9.1059771 2.4357827 10
-0.27260458 9.1850052 2.1180809 9
-3.4946284 117.74629 22.882277 -1
-0.27339458 9.2116232 1.4560755 2
-0.27473652 9.2568369 1.1333073 3
-0.27544001 9.2805405 0.81123823 3
-0.27610189 9.3028412 0.49326155 3
-0.27644768 9.3144922 0.16190828 3
-0.091720015 3.4565372 -0.92754382 45
-0.091484785 3.4476724 -0.79798824 42
-0.090080753 3.3947606 -0.66263527 29
-0.091157861 3.4353523 -0.54812896 125
-0.090300538 3.4030433 -0.4195745 18
-0.091429248 3.4455798 -0.30202812 10
-0.11416485 4.3023882 -0.22918119 9
-0.24797858 9.3452587 -0.16476268 7
-0.24165054 9.106781 2.4357827 10
-0.24323079 9.1663342 2.1135888 9
-0.24398705 9.1948347 1.7867244 3
-0.24419211 9.2025623 1.454515 5
-0.24565399 9.2576542 1.1333073 3
-0.24628301 9.2813597 0.81123823 3
-0.24687484 9.3036633 0.49326155 3
-0.24744923 9.3253098 0.162082 3
-0.080860548 3.4568083 -0.92754382 34
-0.080653168 3.4479427 -0.79798824 42
-0.079874419 3.4146514 -0.66646558 23
-0.07967215 3.4060042 -0.54340369 30
-0.079609133 3.4033101 -0.4195745 19
-0.079905331 3.4159727 -0.29940936 13
-0.10064796 4.3027253 -0.22918119 11
-0.21861842 9.3459921 -0.16476268 8
-0.21281368 9.0978374 2.4331996 9
-0.21466061 9.176795 2.1158347 9
-2.7547424 117.76592 22.882277 -1
-0.21551123 9.2131586 1.4560755 2
-0.21656905 9.2583809 1.1333073 2
-0.21689063 9.2721281 0.81036782 3
-0.21764535 9.3043928 0.49326155 3
-0.21791792 9.3160448 0.16190828 3
-0.06980475 3.4473889 -0.92495292 34
-0.069820754 3.4481792 -0.79798824 40
-0.069146603 3.4148855 -0.66646558 26
-0.069171414 3.4161108 -0.5449788 29
-0.068916939 3.4035435 -0.4195745 23
-0.069173358 3.4162068 -0.29940936 13
-0.087938711 4.3429556 -0.23130816 13
-0.18925609 9.346632 -0.16476268 10
-0.18462212 9.1177788 2.4383657 9
-0.18563259 9.1676817 2.1135888 9
-0.18620977 9.1961861 1.7867244 3
-0.18656623 9.2137909 1.4560755 6
-0.18748197 9.2590151 1.1333073 3
-0.18776035 9.2727642 0.81036782 3
-0.18841371 9.3050308 0.49326155 4
-0.18864967 9.3166838 0.16190828 3
-0.059469711 3.4765625 -0.93272567 35
-0.059154283 3.4581227 -0.80024242 33
-0.05825023 3.4052722 -0.66455042 28
-0.058270164 3.4064376 -0.54340369 26
-0.058054321 3.3938196 -0.41835126 23
-0.058440704 3.4164073 -0.29940936 30
-0.074636087 4.3631792 -0.23237164 20
-0.15972088 9.337184 -0.16458645 11
-0.15564646 9.0989952 2.4331996 10
-0.15699726 9.1779623 2.1158347 9
-2.0147479 117.78091 22.882277 -1
-0.15745044 9.2044554 1.454515 1
-0.15839304 9.2595587 1.1333073 3
-0.15862823 9.2733078 0.81036782 3
-0.15900943 9.2955923 0.49273229 3
-0.15937957 9.3172302 0.16190828 3
-0.04841264 3.4670744 -0.93013471 41
-0.04815397 3.4485497 -0.79798824 32
-0.047826055 3.4250665 -0.66838068 28
-0.047844011 3.4263523 -0.54655385 30
-0.047669202 3.4138331 -0.42079777 26
-0.047707472 3.416574 -0.29940936 18
-0.060788982 4.3534074 -0.23183991 22
-0.13038652 9.3376398 -0.16458645 15
-0.12719528 9.1090994 2.4357827 10
-0.12802707 9.1686668 2.1135888 9
-0.12828808 9.1873589 1.7848176 3
-0.12853307 9.2049046 1.454515 5
-0.12930255 9.2600107 1.1333073 3
-0.12963364 9.2837219 0.81123823 3
-0.12980571 9.2960453 0.49273229 4
-0.12996829 9.3076878 0.16173457 4
-0.037520282 3.4672096 -0.93013471 37
-0.037530657 3.4681683 -0.80249661 35
-0.036959469 3.4153855 -0.66646558 27
-0.037079591 3.4264858 -0.54655385 34
-0.036836714 3.4040418 -0.4195745 25
-0.037081566 3.4266682 -0.30028227 19
-0.047112074 4.3535767 -0.23183991 26
-0.10105086 9.3380032 -0.16458645 18
-0.098473087 9.0997934 2.4331996 10
-0.099327706 9.1787682 2.1158347 9
-1.2746737 117.79124 22.882277 -1
-0.099614419 9.2052631 1.454515 1
-0.10021077 9.2603712 1.1333073 3
-0.10035957 9.2741213 0.81036782 3
-0.10060073 9.2964077 0.49273229 4
-0.10072672 9.3080502 0.16173457 4
-0.026701726 3.4769685 -0.93272567 43
-0.0265601 3.4585266 -0.80024242 34
-0.026380301 3.4351139 -0.67029583 26
-0.026238969 3.4167104 -0.5449788 28
-0.026142437 3.4041407 -0.4195745 23
-0.026392706 3.4367294 -0.30115521 27
-0.03297459 4.2937899 -0.22864945 27
-0.071714208 9.338274 -0.16458645 22
-0.069810614 9.0903978 2.4306166 11
-0.07041648 9.1692905 2.1135888 8
-0.070484653 9.1781673 1.7829107 3
-0.070770644 9.2154074 1.4560755 6
-0.071118012 9.2606401 1.1333073 3
-0.071223609 9.2743912 0.81036782 3
-0.071394764 9.2966776 0.49273229 4
-0.071407393 9.2983227 0.16156085 3
-0.015822222 3.4866936 -0.93531656 41
-0.015694706 3.4585931 -0.80024242 38
-0.015588459 3.4351799 -0.67029583 26
-0.015549756 3.426651 -0.54655385 27
-0.01549294 3.4141309 -0.42079777 27
-0.015505379 3.4168718 -0.29940936 21
-0.019530423 4.3038583 -0.22918119 127
-0.042331479 9.328455 -0.16441023 25
-0.04129583 9.1002331 2.4331996 10
-0.041610003 9.169466 2.1135888 11
-0.53454918 117.79693 22.882277 -1
-0.041774459 9.2057066 1.454515 1
-0.042024545 9.2608175 1.1333073 3
-0.042041741 9.2646074 0.80949742 3
-0.042142771 9.28687 0.49220303 4
-0.042240918 9.3084993 0.16173457 4
-0.004881877 3.4963846 -0.93790746 40
-0.0048699649 3.4878531 -0.80700505 42
-0.0047827596 3.4253969 -0.66838068 29
-0.0047845552 3.4266829 -0.54655385 27
-0.0047670733 3.4141626 -0.42079777 26
-0.0047709006 3.4169037 -0.29940936 34
-0.012883217 9.2269182 -0.49133044 1
-0.013039071 9.338541 -0.16458645 70
-0.012706448 9.100317 2.4331996 9
-0.012789512 9.1598072 2.1113427 9
-0.012815514 9.1784296 1.7829107 3
-0.01285372 9.2057924 1.454515 5
-0.012916811 9.2509785 1.1320927 3
-0.012949871 9.2746553 0.81036782 2
-0.012980989 9.2969427 0.49273229 5
-0.012997246 9.3085861 0.16173457 5
0.0061023454 3.4963827 -0.93790746 39
0.0060704509 3.4781086 -0.8047508 43
0.0059955786 3.43521 -0.67029583 26
0.0059806928 3.426681 -0.54655385 28
0.0059761629 3.4240856 -0.422021 24
0.0059810113 3.4268637 -0.30028227 21
0.01633059 9.3567295 -0.49824309 1
0.016281385 9.328537 -0.16441023 11
0.015883058 9.1003122 2.4331996 9
0.015986888 9.1598024 2.1113427 9
0.20559643 117.79796 22.882277 -1
0.016049907 9.1959105 1.4529543 1
0.01614601 9.2509727 1.1320927 3
0.016169949 9.2646885 0.80949742 3
0.016208805 9.286952 0.49220303 4
0.016246555 9.3085814 0.16173457 5
0.017086508 3.4963462 -0.93790746 47
0.016997203 3.4780724 -0.8047508 41
0.016931456 3.4646184 -0.67604119 26
0.016842399 3.4463954 -0.54970402 28
0.016684696 3.4141252 -0.42079777 25
0.016746774 3.4268279 -0.30028227 22
0.58559865 119.8288 -6.3809147 -1
0.045587718 9.3284397 -0.16441023 1
0.044472408 9.1002178 2.4331996 9
0.044763129 9.1597071 2.1113427 10
0.044854134 9.1783285 1.7829107 3
0.044987854 9.2056923 1.454515 6
0.045208674 9.2508764 1.1320927 3
0.045227014 9.2546301 0.80862695 3
0.045384496 9.2868547 0.49220303 5
0.045392472 9.2884874 0.16138712 4
0.028225586 3.5155919 -0.94308925 45
0.028080223 3.4974864 -0.80925924 46
0.027658178 3.4449191 -0.67221093 28
0.027669469 3.4463255 -0.54970402 27
0.027490068 3.4239805 -0.422021 26
0.027512372 3.4267585 -0.30028227 18
0.075039774 9.3464565 -0.49771136 4
0.074893609 9.3282509 -0.16441023 5
0.072983757 9.090373 2.4306166 8
0.073538929 9.1595211 2.1113427 8
0.9457339 117.79434 22.882277 -1
0.073828816 9.1956282 1.4529543 1
0.074270889 9.2506895 1.1320927 3
0.074381001 9.2644043 0.80949742 3
0.074479565 9.2766809 0.4916738 5
0.074653119 9.2982969 0.16156085 4
0.039269987 3.5154858 -0.94308925 47
0.039067745 3.497381 -0.80925924 46
0.038699817 3.4644437 -0.67604119 27
0.038496267 3.4462216 -0.54970402 30
0.038357526 3.4338017 -0.42324427 27
0.038500242 3.4465775 -0.30202812 38
0.10417903 9.3262043 -0.49664786 8
0.10419875 9.3279696 -0.16441023 3
0.1015416 9.0900984 2.4306166 9
0.102314 9.1592445 2.1113427 8
0.10252201 9.177866 1.7829107 3
0.10271733 9.1953506 1.4529543 5
0.10333237 9.2504101 1.1320927 3
0.10348557 9.2641249 0.80949742 3
0.10373425 9.2863865 0.49220303 4
0.10386416 9.2980165 0.16156085 4
0.050452225 3.5250027 -0.94568014 45
0.050333738 3.5167241 -0.81376761 44
0.049723942 3.4741189 -0.67795634 31
0.049605336 3.465832 -0.55285418 28
0.049144924 3.4336641 -0.42324427 29
0.049185213 3.4364789 -0.30115521 17
0.13362052 9.3358154 -0.49717963 5
0.13350287 9.3275957 -0.16441023 3
0.13009843 9.089735 2.4306166 10
0.1309486 9.1491346 2.1090965 8
1.6858341 117.78607 22.882277 -1
0.13160482 9.1949825 1.4529543 1
0.13225079 9.2401152 1.130878 3
0.13244654 9.2537928 0.80862695 3
0.13276482 9.2760296 0.4916738 3
0.13321728 9.307642 0.16173457 4
0.061694644 3.5344839 -0.9482711 51
0.061381586 3.5165486 -0.81376761 48
0.06080924 3.4837589 -0.67987144 31
0.060493305 3.4656591 -0.55285418 37
0.060105052 3.4434161 -0.4244675 27
0.059980966 3.4363072 -0.30115521 51
0.16312341 9.3453341 -0.49771136 5
0.16280566 9.3271303 -0.16441023 4
0.15865399 9.0892811 2.4306166 10
0.15969077 9.1486778 2.1090965 9
0.16001451 9.1672249 1.7810038 3
0.160491 9.1945238 1.4529543 6
0.16127875 9.2396536 1.130878 3
0.16151749 9.2533312 0.80862695 3
0.16190563 9.2755671 0.4916738 3
0.16245739 9.3071775 0.16173457 5
0.073394939 3.563242 -0.95604378 60
0.07242883 3.5163386 -0.81376761 50
0.071955599 3.4933636 -0.6817866 32
0.071584038 3.4753251 -0.55442929 27
0.071331322 3.4630558 -0.42691401 28
0.070981279 3.4460616 -0.30202812 17
0.1924818 9.3447762 -0.49771136 5
0.19210686 9.3265734 -0.16441023 7
0.18700904 9.0790796 2.4280336 10
0.18823068 9.1383886 2.1068504 8
2.4258676 117.77316 22.882277 -1
0.18957902 9.2038498 1.454515 1
0.19030514 9.2391014 1.130878 3
0.19079199 9.2627382 0.80949742 3
0.19104484 9.275013 0.4916738 3
0.1916959 9.3066206 0.16173457 5
0.08504729 3.5823054 -0.96122557 61
0.084169053 3.5453131 -0.82053024 58
0.083395846 3.5127447 -0.68561685 33
0.082736105 3.4849553 -0.55600435 27
0.082210466 3.4628148 -0.42691401 29
0.082516342 3.4756987 -0.30464685 77
0.22183828 9.3441248 -0.49771136 4
0.22116885 9.3159275 -0.16423403 17
0.21576013 9.0881052 2.4306166 10
0.21717007 9.1474943 2.1090965 9
0.21784334 9.1758528 1.7829107 3
0.21802393 9.1834593 1.4513936 5
0.21932966 9.2384586 1.130878 3
0.21941787 9.2421741 0.80775654 3
0.22018215 9.2743664 0.4916738 5
0.2204579 9.2859812 0.16138712 4
0.096820138 3.6013308 -0.96640742 68
0.095306553 3.5450313 -0.82053024 64
0.094431028 3.5124652 -0.68561685 33
0.093949385 3.4945498 -0.55757946 30
0.093088798 3.4625394 -0.42691401 32
0.093702868 3.4853806 -0.30551976 28
3.2204175 119.78695 -6.3809147 -1
3.2244794 119.93803 -2.1146011 -1
0.2440505 9.0777254 2.4280336 10
0.24616854 9.1565075 2.1113427 8
3.1658053 117.75559 22.882277 -1
0.24687348 9.1827288 1.4513936 1
0.24835199 9.2377234 1.130878 3
0.24871962 9.2513981 0.80862695 3
0.2493173 9.2736292 0.4916738 7
0.24989824 9.2952375 0.16156085 4
0.10871336 3.620317 -0.97158921 65
0.10732038 3.5739291 -0.82729286 68
0.10605447 3.5317721 -0.6894471 36
0.10522376 3.5041082 -0.55915451 33
0.1048599 3.491991 -0.43058375 33
0.10435303 3.4751117 -0.30464685 18
0.25266978 8.4142809 -0.44825926 6
0.27609655 9.1944265 -0.16211942 18
0.27285773 9.0865698 2.4306166 10
0.27464083 9.1459494 2.1090965 9
0.2751976 9.1644907 1.7810038 3
0.27572063 9.1819077 1.4513936 6
0.27766982 9.2468195 1.1320927 3
0.27808148 9.2605286 0.80949742 3
0.27844998 9.2728004 0.4916738 18
0.27909881 9.2944069 0.16156085 4
0.12104706 3.6489174 -0.97936195 45
0.1191937 3.5930488 -0.8318013 78
0.11747473 3.5412312 -0.69136226 41
0.11688653 3.5234997 -0.56230468 38
0.11582977 3.4916444 -0.43058375 32
0.11593045 3.4946795 -0.30639267 114
0.25692019 7.744761 -0.4126325 7
0.27017274 8.1442547 -0.14361666 1
0.30140263 9.0856676 2.4306166 9
0.30337226 9.1450415 2.1090965 9
3.9056182 117.73338 22.882277 -1
0.30456501 9.1809969 1.4513936 1
0.30638903 9.235981 1.130878 3
0.30684257 9.2496529 0.80862695 3
3.9730453 119.76594 6.351007 -1
0.30829662 9.2934847 0.16156085 6
0.13286041 3.6581712 -0.98195285 109
0.13189542 3.6316013 -0.84081811 53
0.12931171 3.5604615 -0.69519252 45
0.12903059 3.5527213 -0.56702995 44
0.12787919 3.5210185 -0.43425351 36
0.12727028 3.5042531 -0.30726558 40
0.26965183 7.4245791 -0.39561671 6
0.28668499 7.893569 -0.13921124 6
0.32959396 9.0750217 2.4280336 11
0.33210072 9.144043 2.1090965 10
0.33277398 9.1625805 1.7810038 3
0.33340642 9.1799946 1.4513936 4
0.33576342 9.2448921 1.1320927 3
0.33589965 9.2486429 0.80862695 3
0.3319951 9.1411352 0.48479354 47
0.33712852 9.2824783 0.16138712 35
0.16985707 4.2850223 -1.1503617 1
0.1 0.1 0.1 -1
0.14228417 3.5894346 -0.70093793 64
0.14120227 3.5621412 -0.56860507 51
0.14034082 3.5404093 -0.43669999 41
0.1388901 3.5038118 -0.30726558 45
0.2907114 7.3338418 -0.39083102 6
0.29543436 7.4529886 -0.1314577 4
0.35968599 9.0738792 2.4280336 10
0.36242163 9.1428909 2.1090965 10
4.6658206 117.7057 22.882277 -1
0.36423779 9.1887083 1.4529543 1
0.3660256 9.2338095 1.130878 3
0.3665674 9.2474785 0.80862695 3
0.36151531 9.1200275 0.48373502 46
0.30177206 7.6128712 0.13237566 123
0.1 0.1 0.1 -1
0.18366452 4.2925663 -0.99410397 1
0.15523824 3.6281936 -0.70859843 98
0.15408091 3.6011446 -0.5749054 123
0.15231116 3.5597825 -0.43914649 52
0.15032279 3.5133109 -0.30813852 52
0.31374988 7.3328924 -0.39083102 4
0.31841969 7.4420342 -0.1312815 11
0.38860357 9.0823555 2.4306166 10
0.39155957 9.1514435 2.1113427 10
0.391936 9.1602411 1.7810038 3
0.39268088 9.1776495 1.4513936 6
0.39460829 9.2226973 1.1296632 3
0.39561737 9.2462807 0.80862695 2
0.38973802 9.1088705 0.48320577 77
0.3265419 7.6318645 0.13272311 61
0.14625327 3.1839578 -0.85499853 110
0.20072548 4.3698268 -1.0121375 105
0.1 0.1 0.1 -1
0.1 0.1 0.1 -1
0.16486003 3.5890298 -0.44281626 100
0.16364497 3.562578 -0.31250307 57
0.3184568 6.932857 -0.36956131 18
0.3390452 7.3810697 -0.13022418 8
0.41713467 9.08109 2.4306166 9
0.41986057 9.1404333 2.1090965 9
5.4052901 117.67406 22.882277 -1
0.42196456 9.1862383 1.4529543 1
0.4244912 9.2412434 1.1320927 3
0.42512053 9.2549438 0.80949742 2
0.41835243 9.1076012 0.48320577 48
0.34546974 7.5209332 0.13081217 86
0.15672873 3.1931295 -0.85758942 46
0.1 0.1 0.1 -1
0.15589797 3.1762042 -0.62050241 40
0.30402836 6.1941543 -0.98915225 87
0.17370166 3.5389292 -0.43669999 1
0.1782549 3.6316953 -0.31861347 117
0.33533993 6.8320842 -0.36424389 6
0.36076131 7.350009 -0.12969553 15
0.44566163 9.0797348 2.4306166 11
0.44857398 9.1390696 2.1090965 10
0.44948336 9.1575975 1.7810038 3
0.45033762 9.1750011 1.4513936 5
0.45303467 9.22995 1.130878 3
0.45370528 9.2436123 0.80862695 3
0.44745222 9.1162157 0.48373502 60
0.35782188 7.290122 0.12681657 48
0.16424043 3.1443946 -0.84463489 107
0.16414571 3.142581 -0.72810787 29
0.16331573 3.1266909 -0.61092675 34
0.1 0.1 0.1 -1
0.1 0.1 0.1 -1
0.34451172 6.5957007 -0.57874173 1
0.35211396 6.7412467 -0.35945821 13
0.35725191 6.8396125 -0.12070848 7
0.47418422 9.07829 2.4306166 10
0.47728294 9.1376152 2.1090965 9
0.48029873 9.1953526 1.7886312 7
0.47915947 9.1735411 1.4513936 2
0.48202911 9.2284813 1.130878 3
0.48274264 9.2421417 0.80862695 3
0.47608942 9.1147652 0.48373502 55
0.37342113 7.1491737 0.12438448 78
0.17358391 3.1342194 -0.842044 37
0.17294008 3.1225944 -0.72359949 47
0.17150944 3.0967629 -0.60518134 36
0.17310882 3.1256409 -0.49930137 1
0.17233396 3.1116505 -0.38410029 43
0.36908713 6.6642122 -0.5848521 21
0.36611179 6.6104898 -0.35254556 5
0.37320837 6.738625 -0.11894631 7
0.50216788 9.0671101 2.4280336 9
0.50544834 9.1263409 2.1068504 10
0.50809866 9.1741953 1.7848176 5
0.50852281 9.1818533 1.4529543 2
0.51101881 9.2269211 1.130878 2
0.51177526 9.2405796 0.80862695 3
0.5041697 9.1032534 0.48320577 51
0.38592678 6.9682679 0.12125749 92
0.18004309 3.0758064 -0.82649857 65
0.1810412 3.0928578 -0.71683687 45
0.18123734 3.0962088 -0.60518134 28
0.18235037 3.1152234 -0.49772629 135
0.18152867 3.1011856 -0.38287702 29
0.38827515 6.6331854 -0.58223337 98
0.38279274 6.5395255 -0.34882334 7
0.38911816 6.6475868 -0.11736036 5
0.53121507 9.0751314 2.4306166 9
0.53468645 9.1344357 2.1090965 10
0.53691769 9.172554 1.7848176 5
0.5367887 9.1703501 1.4513936 3
0.54000348 9.2252703 1.130878 3
0.54080284 9.2389259 0.80862695 3
0.53276587 9.1016245 0.48320577 41
0.39554676 6.7574115 0.11760934 44
0.19029979 3.0848658 -0.82908946 36
0.19075678 3.0922737 -0.71683687 47
0.18975483 3.0760314 -0.60135108 26
0.18848807 3.0554965 -0.4882758 25
0.18943715 3.0708818 -0.37920728 34
0.41033867 6.6518188 -0.58397919 22
0.40272051 6.5283237 -0.34829161 14
0.40753776 6.6064138 -0.1166555 5
0.55972278 9.0734177 2.4306166 10
0.56338048 9.1327114 2.1090965 12
0.56512702 9.1610241 1.7829107 4
0.56559551 9.1686182 1.4513936 3
0.56898278 9.2235279 1.130878 3
0.57043844 9.2471247 0.80949742 3
0.5607419 9.0899391 0.48267654 33
0.41246447 6.6862788 0.1163933 54
0.19749035 3.0456996 -0.81872582 47
0.19857925 3.0624926 -0.71007425 32
0.19814734 3.0558317 -0.59752083 30
0.19744726 3.0450349 -0.48670071 30
0.19844146 3.0603676 -0.37798405 24
0.43381229 6.6902604 -0.58747089 28
0.42387396 6.5369911 -0.34882334 1
0.42764339 6.5951233 -0.11647928 11
0.58822495 9.0716143 2.4306166 10
0.59206891 9.1308966 2.1090965 9
0.59390438 9.1592035 1.7829107 5
0.59439671 9.1667957 1.4513936 4
0.59795654 9.2216949 1.130878 3
0.60786617 9.3745222 0.82081294 4
0.58929598 9.0881329 0.48267654 26
0.42958617 6.6250849 0.11535097 38
0.20312624 2.9872463 -0.8031804 41
0.20753841 3.0521336 -0.70782006 35
0.20641482 3.0356095 -0.59369057 24
0.20634258 3.0345471 -0.48512563 25
0.20670827 3.0399249 -0.37553754 28
0.45550403 6.6988034 -0.5883438 26
8.1294222 119.55415 -6.3809147 -1
0.44768214 6.5837722 -0.11630306 2
0.61672133 9.0697222 2.4306166 10
0.6207515 9.1289911 2.1090965 8
0.6226759 9.1572924 1.7829107 4
0.62386221 9.1747379 1.4529543 4
0.635005 9.3386078 1.1454543 4
0.64001739 9.412323 0.82429469 2
0.61716682 9.076273 0.48214728 35
0.44971901 6.6137271 0.11517724 18
0.1809762 2.5434215 -0.68399882 28
0.21643445 3.0417483 -0.70556587 36
0.21525382 3.0251558 -0.59177542 22
0.21517396 3.0240335 -0.48355055 23
0.21484859 3.0194607 -0.37309104 21
0.47513255 6.6774659 -0.58659792 18
0.47344342 6.6537271 -0.35520425 6
0.46836343 6.5823331 -0.11630306 3
0.64521158 9.0677395 2.4306166 10
0.64873636 9.1172762 2.1068504 10
0.6577118 9.2434168 1.8000724 6
0.66319817 9.3205214 1.4763639 4
0.66786242 9.3860722 1.1515278 2
0.66816974 9.3903913 0.82255381 3
0.64638638 9.0842505 0.48267654 22
0.47120404 6.6222548 0.11535097 30
0.18538679 2.4946806 -0.67104429 50
0.22526729 3.0313375 -0.70331162 22
0.22330181 3.0048888 -0.58794516 23
0.2232095 3.0036466 -0.48040038 22
0.22359791 3.0088732 -0.37186778 24
0.49758458 6.6958094 -0.5883438 31
0.48916408 6.5824981 -0.35148206 4
0.48978105 6.5908003 -0.11647928 7
0.67441142 9.0753021 2.4331996 13
0.68893021 9.2706757 2.1427882 15
0.69183999 9.3098316 1.8134204 3
0.69320816 9.3282423 1.4779245 3
0.69587505 9.36413 1.1490984 4
0.6984055 9.398181 0.82342422 2
0.67418212 9.072217 0.48214728 28
0.49200612 6.6207418 0.11535097 31
0.18874693 2.4363079 -0.65549886 42
0.23403686 3.0209014 -0.70105743 33
0.23349895 3.013958 -0.58986032 23
0.23264462 3.0029306 -0.48040038 19
0.23228283 2.9982607 -0.37064454 21
0.520926 6.724009 -0.59096253 84
0.50984114 6.5809288 -0.35148206 5
0.50971192 6.5792603 -0.11630306 6
0.71411192 9.2176151 2.4719448 11
0.7203095 9.2976122 2.1495264 12
0.72032601 9.2978249 1.8115135 6
0.72251022 9.3260183 1.4779245 7
0.72528988 9.3618975 1.1490984 2
0.72792721 9.3959408 0.82342422 9
0.70422262 9.0899658 0.48320577 18
0.51357561 6.6291323 0.11552469 11
0.19717614 2.4453301 -0.65808976 39
0.24274309 3.0104401 -0.69880325 51
0.24059986 2.9838603 -0.58411491 20
0.24049005 2.9824984 -0.47725022 19
0.24090329 2.9876235 -0.36942127 24
0.55485803 6.8812132 -0.60492915 14
0.5313158 6.5892482 -0.3520138 4
0.4829661 5.9896269 -0.10590628 14
0.74461925 9.2345848 2.4771109 14
9.3983097 116.55553 26.95331 -1
0.74953234 9.295516 1.8115135 4
0.75101125 9.3138571 1.4763639 6
0.7546975 9.3595734 1.1490984 6
0.75984383 9.4233961 0.8260355 11
0.73197347 9.077755 0.48267654 21
0.48939705 6.0693822 0.10579629 47
0.20485739 2.4446986 -0.65808976 36
0.2513859 2.999954 -0.69654906 42
0.24915314 2.973309 -0.58219981 21
0.24985863 2.9817281 -0.47725022 20
0.24945922 2.9769616 -0.36819804 22
0.57564139 6.8695087 -0.60405624 25
0.55368161 6.6074481 -0.35307729 8
0.49677119 5.9282985 -0.10484897 13
9.6804199 115.52284 30.996174 -1
1.3247081 15.808616 3.6566656 73
0.77873135 9.2931156 1.8115135 5
0.77944303 9.301609 1.4748032 17
0.7857554 9.3769379 1.1515278 19
0.78861266 9.4110355 0.82516509 13
0.76048845 9.0754108 0.48267654 15
0.50512248 6.0279603 0.10510141 44
0.21337338 2.4536653 -0.66068065 39
0.25996524 2.9894435 -0.69429481 39
0.25849283 2.9725115 -0.58219981 19
0.25836924 2.9710906 -0.47567514 18
0.25795054 2.9662757 -0.3669748 20
0.59290457 6.8180447 -0.59969163 27
0.57530189 6.6156244 -0.35360903 8
0.48680818 5.5980005 -0.099033818 2
1.3692361 15.74539 4.225812 150
0.80874836 9.3001184 2.1517725 67
10.205338 117.35524 22.882277 -1
10.268711 118.08399 18.727659 -1
0.81263024 9.344758 1.1478837 8
0.81731129 9.3985872 0.82429469 31
0.78986102 9.0829248 0.48320577 15
0.51799387 5.9566174 0.10388536 32
0.22021374 2.4433632 -0.65808976 40
0.26935557 2.9886122 -0.69429481 39
0.26782995 2.9716847 -0.58219981 19
0.26681548 2.9604287 -0.47410005 31
0.26637718 2.9555657 -0.36575153 22
0.60806167 6.7466969 -0.59358126 26
0.49479336 5.4899383 -0.29352209 9
0.50259739 5.5765276 -0.09868139 13
0.83768904 9.2945089 2.4951921 227
0.83971089 9.3169422 2.1562648 121
0.83798712 9.2978163 1.8134204 30
0.83875763 9.306365 1.4763639 51
0.84376556 9.3619299 1.150313 14
0.84683377 9.3959732 0.82429469 30
0.81749552 9.0704536 0.48267654 12
0.54208958 6.0147095 0.10492769 30
0.2278887 2.4426594 -0.65808976 39
0.2778382 2.9780507 -0.69204062 42
0.27625272 2.9610562 -0.58028466 18
0.27611461 2.9595759 -0.47410005 17
0.27658299 2.9645963 -0.3669748 22
0.63295549 6.7844286 -0.5970729 21
0.49070314 5.2596755 -0.28129199 12
0.51454139 5.5151896 -0.097624086 21
0.86508965 9.2725935 2.490026 225
0.86807156 9.3045559 2.1540186 101
0.86536914 9.275589 1.8096067 27
0.86799026 9.3036842 1.4763639 25
0.87225068 9.34935 1.1490984 10
0.87727326 9.4031849 0.82516509 48
0.84691477 9.0777836 0.48320577 10
0.55819631 5.9831109 0.10440652 29
0.2364888 2.4515452 -0.66068065 39
0.28719264 2.9771631 -0.69204062 41
0.28649619 2.9699433 -0.58219981 21
0.285411 2.958694 -0.47410005 26
0.28398919 2.9439547 -0.3645283 23
0.65139663 6.7526593 -0.59445417 26
0.4928419 5.1090121 -0.27331585 9
0.5270651 5.4637847 -0.096743003 5
0.89514363 9.2794456 2.492609 225
0.89636266 9.2920828 2.1517725 141
0.89639008 9.292367 1.8134204 36
0.89626586 9.2910795 1.4748032 25
0.9006651 9.3366842 1.1478837 13
0.90680987 9.400383 0.82516509 40
0.87542921 9.075078 0.48320577 7
0.56738949 5.8818049 0.10266931 34
0.24418938 2.4507902 -0.66068065 38
0.2955783 2.9665515 -0.68978643 43
0.29387888 2.9494956 -0.57836956 18
0.29372552 2.9479561 -0.47252497 18
0.29225245 2.933172 -0.36330503 29
0.67557055 6.7803178 -0.5970729 28
0.50492966 5.0676923 -0.27118888 8
0.54026222 5.4223051 -0.096038133 25
1.5717742 15.775006 4.2387271 177
0.92651629 9.2989178 2.1540186 116
0.92557847 9.289505 1.8134204 43
0.92642951 9.2980471 1.4763639 33
0.92999268 9.3338079 1.1478837 12
0.93633747 9.3974876 0.82516509 39
0.90492511 9.0822191 0.48373502 8
0.57496047 5.7705517 0.10075837 3
0.25231516 2.4499669 -0.66068065 37
0.30541411 2.9655552 -0.68978643 38
0.30365816 2.9485047 -0.57836956 19
0.30349967 2.9469659 -0.47252497 16
0.3019776 2.9321866 -0.36330503 29
0.69294846 6.7284932 -0.59270835 70
0.51763994 5.0262566 -0.26906192 7
0.53980297 5.2414584 -0.092866234 12
1.6240774 15.769708 4.2387271 170
0.95734751 9.2957945 2.1540186 135
0.95637846 9.2863846 1.8134204 27
0.95826977 9.3047495 1.4779245 38
0.96195644 9.3405466 1.1490984 12
0.96647495 9.3844213 0.82429469 48
0.93503785 9.0791683 0.48373502 6
