# .PCD v0.7 - Point Cloud Data file format
VERSION 0.7
FIELDS x y z intensity
SIZE 4 4 4 4
TYPE F F F F
COUNT 1 1 1 1
WIDTH 1485
HEIGHT 1
VIEWPOINT 0 0 0 1 0 0 0
POINTS 1485
DATA ascii
2.5898104 0.29278246 -0.1387849 131
3.0004182 0.3392024 -0.053217463 70
4.1181831 0.46556762 1.1081133 5
4.1636062 0.47070277 0.96582693 9
4.1846271 0.47307923 0.81804138 16
4.2596874 0.48156491 0.67731702 18
4.3200479 0.48838878 0.53203493 11
118.78786 13.429171 10.445127 -1
119.07332 13.461441 6.351007 -1
28.692867 3.2437775 0.5017072 39
0.1 0.1 0.1 -1
0.1 0.1 0.1 -1
2.4975848 0.27441233 -0.49027351 203
2.4442103 0.26854804 -0.39219573 191
2.4170556 0.2655645 -0.29969609 44
2.4557555 0.26981649 -0.21648258 31
2.5907173 0.2846449 -0.1387849 128
3.0114076 0.33086661 -0.053393681 158
4.1292281 0.45368275 1.1106962 10
4.2134953 0.46294129 0.97705746 9
4.2641549 0.46850732 0.83329624 16
4.3495445 0.47788918 0.6913628 14
118.39893 13.008618 14.576301 -1
28.439852 3.1247172 2.4998672 4
28.269964 3.1060514 1.5073056 29
27.798496 3.0542507 0.48589858 66
0.1 0.1 0.1 -1
0.1 0.1 0.1 -1
2.5569916 0.27281222 -0.5017643 225
2.4352226 0.25982034 -0.39062065 81
2.3981402 0.25586393 -0.29724959 28
2.4565909 0.26210019 -0.21648258 142
2.5717397 0.27438572 -0.13772142 126
2.9826062 0.31822217 -0.052865028 85
4.197876 0.4478825 1.1287774 12
4.2924452 0.45797232 0.99502635 8
4.3436947 0.4634403 0.84855109 11
117.86071 12.574871 18.727659 -1
28.711639 3.0633209 3.5335381 81
118.8699 12.682544 10.445127 -1
28.35902 3.0256989 1.5115397 84
119.30477 12.728942 2.084656 -1
0.1 0.1 0.1 -1
0.1 0.1 0.1 -1
0.1 0.1 0.1 -1
2.4262042 0.2511518 -0.38904557 162
2.3989322 0.2483287 -0.29724959 13
2.4474933 0.25335556 -0.21560967 75
2.5825219 0.26733324 -0.13825315 129
2.9835913 0.30885047 -0.052865028 155
4.2761369 0.44265005 1.1494415 12
4.3617115 0.45150843 1.0107491 17
117.17203 12.12922 22.882277 -1
27.893089 2.8873906 4.4306521 23
29.866413 3.0916619 3.6744423 84
118.90916 12.309041 10.445127 -1
119.19489 12.33862 6.351007 -1
41.114067 4.2559781 0.71816403 35
0.1 0.1 0.1 -1
0.1 0.1 0.1 -1
0.1 0.1 0.1 -1
2.4466329 0.24550031 -0.39219573 112
2.419451 0.24277283 -0.29969609 31
2.4978373 0.25063828 -0.21997423 4
2.583349 0.25921869 -0.13825315 129
2.9646499 0.29747921 -0.052512594 129
115.34848 11.57431 30.996174 -1
116.34956 11.67476 26.95331 -1
25.580984 2.5668499 4.9940567 36
27.931507 2.8027062 4.4353342 118
118.51627 11.892174 14.576301 -1
26.693743 2.6785066 2.3440607 60
26.946674 2.7038863 1.4353275 31
28.363266 2.8460302 0.49527952 114
0.1 0.1 0.1 -1
0.1 0.1 0.1 -1
2.5300996 0.24629523 -0.49601892 161
2.4768367 0.2411103 -0.39692098 226
2.4004045 0.23366991 -0.29724959 11
2.4489954 0.23840004 -0.21560967 35
2.5741677 0.25058511 -0.13772142 131
119.41689 11.624763 -2.1146011 -1
115.38232 11.232014 30.996174 -1
116.38368 11.329494 26.95331 -1
25.520096 2.4842808 4.9807086 49
29.266884 2.849016 4.6460204 86
118.55104 11.540477 14.576301 -1
26.691656 2.5983276 2.3431904 76
26.725981 2.6016691 1.4231548 29
28.192461 2.7444251 0.49215254 14
0.1 0.1 0.1 -1
0.1 0.1 0.1 -1
2.5015047 0.23602132 -0.49027351 99
2.4873726 0.23468794 -0.39849606 177
2.4307301 0.22934362 -0.30091932 18
2.4794452 0.23393998 -0.2182284 8
2.5848417 0.24388431 -0.13825315 138
2.6179645 0.24700952 -0.04634501 87
115.41514 10.889619 30.996174 -1
116.41679 10.984126 26.95331 -1
25.410078 2.397485 4.9578266 36
27.642799 2.6081462 4.3869543 28
27.501781 2.594841 3.380487 38
26.719086 2.5209923 2.3449311 121
26.693815 2.5186079 1.4210378 32
27.961576 2.6382234 0.48798323 43
0.1 0.1 0.1 -1
0.1 0.1 0.1 -1
2.5120482 0.22861429 -0.49218863 75
2.4881372 0.22643822 -0.39849606 49
2.4117093 0.21948273 -0.29847282 16
2.4901283 0.22661942 -0.21910131 15
2.5756915 0.23440629 -0.13772142 145
2.6088121 0.23742048 -0.046168793 141
115.45061 10.506828 30.996174 -1
116.45257 10.598014 26.95331 -1
25.408112 2.3123193 4.9559197 55
27.602112 2.5119889 4.3791513 22
27.569546 2.5090253 3.3877752 39
26.65785 2.4260545 2.3388381 14
26.811415 2.4400299 1.4268596 43
27.950256 2.5436726 0.48763579 133
0.1 0.1 0.1 -1
0.1 0.1 0.1 -1
2.512754 0.22072135 -0.49218863 66
2.4396498 0.21429984 -0.39062065 155
2.4123869 0.21190505 -0.29847282 12
2.4709806 0.21705195 -0.21735549 17
2.5863626 0.22718717 -0.13825315 129
2.5995848 0.22834861 -0.045992576 126
115.48305 10.144078 30.996174 -1
116.48529 10.232116 26.95331 -1
24.662279 2.1663446 4.8090916 31
27.570509 2.4218049 4.3729086 59
28.081573 2.466697 3.4497244 28
26.695112 2.3449097 2.3414495 63
28.987541 2.5462775 1.5422362 36
3.0478024 0.26772022 0.05315873 133
0.1 0.1 0.1 -1
0.1 0.1 0.1 -1
2.4743154 0.20951375 -0.48452812 46
2.469831 0.20913403 -0.3953459 36
2.4229302 0.20516269 -0.29969609 28
2.4815767 0.21012859 -0.2182284 10
2.5870638 0.21906076 -0.13825315 113
2.6002893 0.22018066 -0.045992576 120
115.51435 9.7812281 30.996174 -1
116.51686 9.8661165 26.95331 -1
24.805904 2.1004508 4.8357878 105
118.10699 10.000761 18.727659 -1
28.16831 2.385164 3.4594419 49
27.129189 2.2971759 2.3788779 58
26.965521 2.2833173 1.4342691 32
2.7796319 0.23536655 0.048468255 22
0.1 0.1 0.1 -1
0.1 0.1 0.1 -1
2.4749613 0.20173943 -0.48452812 41
2.421263 0.19736236 -0.38747048 62
2.4136705 0.1967435 -0.29847282 34
2.4921534 0.2031408 -0.21910131 19
2.5777862 0.21012092 -0.13772142 99
2.6109338 0.21282284 -0.046168793 126
115.54451 9.4182816 30.996174 -1
116.54728 9.50002 26.95331 -1
25.154821 2.0504239 4.9025278 47
118.13782 9.6296682 18.727659 -1
28.076733 2.288595 3.447295 37
28.476702 2.3211973 2.4963856 1
27.03228 2.2034593 1.4374446 30
2.6906686 0.2193222 0.046904761 25
0.1 0.1 0.1 -1
0.1 0.1 0.1 -1
2.4853339 0.19516356 -0.48644325 41
2.4415276 0.19172364 -0.39062065 31
2.4241383 0.1903581 -0.29969609 52
2.4828138 0.19496568 -0.2182284 21
2.5783985 0.20247155 -0.13772142 117
2.6015859 0.20429239 -0.045992576 188
115.57195 9.0754137 30.996174 -1
116.57496 9.1541758 26.95331 -1
24.788912 1.9465765 4.8300672 42
27.306164 2.1442463 4.3276501 35
28.103189 2.2068338 3.4497244 55
28.533121 2.2405946 2.5007377 125
26.491154 2.0802469 1.4083358 58
2.6514363 0.20820694 0.046209875 43
0.1 0.1 0.1 -1
0.1 0.1 0.1 -1
2.4859018 0.18778858 -0.48644325 115
2.4223917 0.18299091 -0.38747048 102
2.4345891 0.18391232 -0.30091932 25
2.4635143 0.18609738 -0.21648258 28
2.5889452 0.19557261 -0.13825315 121
2.5922105 0.19581929 -0.045816358 127
115.59836 8.7324648 30.996174 -1
116.6016 8.8082514 26.95331 -1
24.735847 1.8685812 4.8186259 34
118.19288 8.9284592 18.727659 -1
28.119513 2.1241879 3.4509392 21
28.678715 2.166431 2.5129237 74
26.188524 1.9783185 1.391929 23
2.6420722 0.19958591 0.046036154 34
0.1 0.1 0.1 -1
0.1 0.1 0.1 -1
2.4963005 0.18025087 -0.48835838 166
2.4919319 0.17993543 -0.39849606 64
2.4450846 0.17655271 -0.30214259 20
2.4541819 0.17720962 -0.21560967 18
2.5895796 0.18698628 -0.13825315 133
2.6028183 0.18794221 -0.045992576 128
115.62669 8.3490791 30.996174 -1
30.421036 2.1966178 7.0303216 227
24.8594 1.7950277 4.8415084 66
27.457022 1.9825947 4.3494992 79
28.146202 2.0323584 3.4533684 52
28.735422 2.0749044 2.5172758 11
26.02562 1.8792371 1.3829317 40
2.6227746 0.18938321 0.045688711 18
0.1 0.1 0.1 -1
0.1 0.1 0.1 -1
0.1 0.1 0.1 -1
2.4727814 0.17074539 -0.3953459 143
2.4357259 0.16818671 -0.30091932 18
2.4547267 0.16949871 -0.21560967 15
2.5801921 0.17816208 -0.13772142 163
2.593421 0.17907555 -0.045816358 98
115.65234 7.9857864 30.996174 -1
30.486115 2.1050642 7.0437984 66
24.806158 1.7128636 4.8300672 29
27.344868 1.8881613 4.3307714 29
118.82848 8.2050991 14.576301 -1
119.26057 8.2349348 10.445127 -1
26.150942 1.8057208 1.3892828 37
2.6333313 0.18183136 0.045862433 55
0.1 0.1 0.1 -1
0.1 0.1 0.1 -1
1.3319379 0.087766767 -0.26045781 186
2.4930131 0.16427471 -0.39849606 92
2.4560492 0.16183899 -0.30336583 29
2.4751275 0.16309614 -0.21735549 19
2.5907032 0.17071189 -0.13825315 163
2.5939708 0.17092721 -0.045816358 155
115.67686 7.6224151 30.996174 -1
30.512024 2.0105605 7.0482903 140
24.811417 1.6349244 4.8300672 69
27.281672 1.7976995 4.3198471 16
29.515327 1.9448841 3.6197813 216
119.28586 7.8602266 10.445127 -1
26.25613 1.7301223 1.3945752 51
2.6338897 0.17355761 0.045862433 53
0.1 0.1 0.1 -1
0.1 0.1 0.1 -1
1.3713896 0.086040229 -0.26811832 151
2.4836612 0.15582353 -0.39692098 155
2.4664509 0.15474376 -0.30458906 21
2.4656854 0.15469573 -0.21648258 28
2.5812604 0.16194685 -0.13772142 132
2.5944951 0.16277719 -0.045816358 130
115.70023 7.2589688 30.996174 -1
25.324846 1.5888668 5.8488684 111
117.56698 7.3760872 22.882277 -1
27.247751 1.7095089 4.3136044 87
118.87769 7.4583201 14.576301 -1
119.30997 7.4854407 10.445127 -1
26.321234 1.6513796 1.3977507 40
2.6344218 0.16528216 0.045862433 41
0.1 0.1 0.1 -1
0.1 0.1 0.1 -1
1.3814363 0.082556367 -0.27003345 154
2.4939702 0.14904279 -0.39849606 64
2.4569919 0.14683291 -0.30336583 28
2.4661336 0.14737923 -0.21648258 22
2.5916977 0.1548831 -0.13825315 115
2.6049473 0.1556749 -0.045992576 128
115.72127 6.9156475 30.996174 -1
25.154362 1.5032561 5.8084383 75
117.58835 7.0272269 22.882277 -1
26.414616 1.5785705 4.1809502 160
24.532888 1.4661161 3.0075767 136
25.34803 1.5148301 2.2187192 1
26.365891 1.5756587 1.3998678 140
2.6349006 0.15746497 0.045862433 52
0.1 0.1 0.1 -1
0.1 0.1 0.1 -1
1.3718761 0.077900767 -0.26811832 191
2.4746828 0.14052267 -0.3953459 145
2.4772346 0.14066757 -0.30581233 61
2.4765058 0.14062619 -0.21735549 52
2.6021156 0.14775884 -0.1387849 1
2.6053977 0.1479452 -0.045992576 127
115.74127 6.5722656 30.996174 -1
25.197626 1.4308249 5.8174229 159
26.158131 1.4853663 5.0893998 30
27.77022 1.5769073 4.3947577 21
29.303835 1.6639923 3.5918434 72
25.342468 1.4390496 2.2178488 123
119.63909 6.7935996 6.351007 -1
2.6353562 0.14964637 0.045862433 137
0.1 0.1 0.1 -1
0.1 0.1 0.1 -1
1.3231347 0.070500426 -0.25854266 227
2.4948807 0.13293442 -0.39849606 118
2.4777105 0.13201956 -0.30581233 58
2.5167725 0.13410088 -0.22084714 153
2.6026156 0.13867486 -0.1387849 22
2.6058981 0.13884977 -0.045992576 19
115.76351 6.1682134 30.996174 -1
25.231659 1.3444154 5.8241611 206
26.202366 1.3961376 5.0970268 82
27.242926 1.4515816 4.310483 32
29.309464 1.5616927 3.5918434 70
25.347338 1.3505791 2.2178488 126
26.225939 1.3973936 1.391929 1
2.6757998 0.14257433 0.046557318 138
0.1 0.1 0.1 -1
0.1 0.1 0.1 -1
0.1 0.1 0.1 -1
2.4854231 0.12460144 -0.39692098 206
2.4781132 0.12423496 -0.30581233 60
2.507232 0.12569478 -0.21997423 1
2.6429317 0.1324978 -0.14091188 12
2.6063216 0.13066243 -0.045992576 13
115.78232 5.8045015 30.996174 -1
25.226025 1.2646534 5.8219147 113
25.167377 1.2617133 4.8949003 43
118.38097 5.9347796 18.727659 -1
29.35388 1.4715947 3.5967021 57
25.321606 1.2694452 2.2152376 74
26.280066 1.3174956 1.3945752 44
2.6962066 0.13516861 0.046904761 31
0.1 0.1 0.1 -1
0.1 0.1 0.1 -1
0.1 0.1 0.1 -1
1.6769302 0.07878869 -0.26776415 124
2.5082331 0.11784653 -0.30948207 47
2.5076144 0.11781747 -0.21997423 89
2.6732595 0.12560011 -0.14250709 8
2.5867443 0.12153529 -0.045640141 18
26.566446 1.2481948 7.1110392 165
25.190939 1.1835681 5.8129306 143
117.66833 5.5285153 22.882277 -1
25.97872 1.2205812 4.1091609 28
118.98017 5.5901504 14.576301 -1
25.633953 1.2043827 2.2422209 144
25.934952 1.2185247 1.3760515 28
2.6866302 0.12622833 0.04673104 73
0.1 0.1 0.1 -1
0.1 0.1 0.1 -1
0.1 0.1 0.1 -1
1.6771694 0.073520079 -0.26776415 117
2.4986756 0.10953146 -0.30825883 48
2.4980199 0.10950273 -0.21910131 54
2.6836171 0.11763853 -0.14303884 17
2.6070912 0.11428395 -0.045992576 9
26.560585 1.1643047 7.1084561 132
30.4223 1.3335862 7.0190911 181
25.488636 1.1173151 4.9559197 42
118.41592 5.1908579 18.727659 -1
29.372463 1.2875657 3.5979168 36
25.627657 1.1234092 2.2413504 1
25.649336 1.1243594 1.3607032 24
2.6970026 0.11822529 0.046904761 50
0.1 0.1 0.1 -1
0.1 0.1 0.1 -1
0.1 0.1 0.1 -1
1.6773802 0.068543501 -0.26776415 102
2.4989896 0.10211728 -0.30825883 41
2.4983339 0.10209049 -0.21910131 156
2.6839545 0.10967557 -0.14303884 11
2.6074188 0.10654806 -0.045992576 13
26.8535 1.097326 7.1859465 147
116.83632 4.774332 26.95331 -1
25.315289 1.0344695 4.9215961 32
25.896868 1.0582348 4.0951152 19
29.435659 1.2028419 3.6052051 36
25.411896 1.0384171 2.2222009 49
25.742357 1.0519209 1.3654665 37
2.6973414 0.11022262 0.046904761 40
0.1 0.1 0.1 -1
0.1 0.1 0.1 -1
0.1 0.1 0.1 -1
1.6578399 0.062818483 -0.26461399 146
2.4893637 0.094326384 -0.30703557 52
2.5683086 0.09731774 -0.22521171 45
2.6942468 0.10208976 -0.14357059 15
2.5977321 0.098432653 -0.045816358 11
26.856638 1.0176454 7.1859465 173
24.879305 0.94272077 5.7388086 109
25.279009 0.95786625 4.913969 45
25.850542 0.97952265 4.0873117 50
29.825933 1.1301572 3.6525779 59
25.394955 0.96225965 2.2204602 52
26.084644 0.98839325 1.383461 30
2.7176392 0.10297614 0.047252204 29
0.1 0.1 0.1 -1
0.1 0.1 0.1 -1
1.2653662 0.043745331 -0.24705188 227
1.6679084 0.057661735 -0.26618907 115
2.370635 0.081955895 -0.29235658 41
2.5686171 0.088800386 -0.22521171 48
2.7145302 0.093844786 -0.14463407 17
2.6180291 0.090508625 -0.046168793 13
26.8309 0.92757863 7.1781974 135
24.862818 0.85953951 5.7343168 1
25.232994 0.87233692 4.9044347 41
27.452843 0.94907999 4.3401351 80
119.04031 4.115376 14.576301 -1
25.875898 0.89456302 2.2622406 66
26.077799 0.90154296 1.3829317 25
2.7179658 0.093963563 0.047252204 14
0.1 0.1 0.1 -1
0.1 0.1 0.1 -1
1.2654974 0.039769858 -0.24705188 227
1.6384704 0.051491007 -0.26146382 123
1.9443207 0.06110274 -0.23975687 37
2.6186681 0.082294956 -0.22957627 1
2.7148116 0.08531639 -0.14463407 22
2.6183007 0.082283407 -0.046168793 14
26.833681 0.8432824 7.1781974 127
24.855656 0.78112042 5.7320704 175
25.422031 0.7989195 4.9406648 51
118.47115 3.7231059 18.727659 -1
26.479294 0.83214533 3.242012 33
25.619696 0.80513138 2.2396095 45
26.160351 0.82212216 1.3871658 31
2.6582863 0.083540007 0.046209875 46
0.1 0.1 0.1 -1
0.1 0.1 0.1 -1
1.285238 0.036348939 -0.25088215 226
1.6287528 0.046064179 -0.25988874 127
1.954424 0.05527477 -0.24098012 30
119.49416 3.3795183 -10.474963 -1
3.5834882 0.10134775 -0.19089571 1
2.6285405 0.074340045 -0.04634501 20
27.666681 0.78246552 7.4003367 151
116.88708 3.3057854 26.95331 -1
117.75105 3.3302202 22.882277 -1
23.726072 0.67101771 3.7502139 74
26.442089 0.74783176 3.2371533 33
25.46277 0.72013474 2.2256827 14
26.033039 0.73626304 1.3802855 49
2.6785245 0.075753689 0.046557318 18
0.1 0.1 0.1 -1
0.1 0.1 0.1 -1
1.3049695 0.03280437 -0.2547124 225
1.6387616 0.041195247 -0.26146382 116
1.9347445 0.048635673 -0.23853362 64
3.5950842 0.090373352 -0.3151218 18
3.6536677 0.091846026 -0.1946179 10
2.6387565 0.066333152 -0.046521224 3
27.707634 0.69651544 7.4106688 170
116.8969 2.9385581 26.95331 -1
25.51487 0.64139366 4.9578266 77
118.4922 2.9786611 18.727659 -1
26.404617 0.66376019 3.2322946 21
25.534618 0.64189011 2.2317755 76
26.444519 0.66476327 1.4019848 40
2.6887445 0.067589752 0.04673104 62
0.1 0.1 0.1 -1
0.1 0.1 0.1 -1
1.2658112 0.028062163 -0.24705188 225
1.6290039 0.036113895 -0.25988874 95
1.9051129 0.042235043 -0.23486386 50
3.5654585 0.079043761 -0.31250307 1
3.6539242 0.081004985 -0.1946179 5
2.6489377 0.058725126 -0.046697441 2
26.106306 0.57875884 6.9818883 156
31.457214 0.69738477 7.2526865 143
25.879782 0.57373697 5.0283804 41
118.50052 2.627075 18.727659 -1
26.446165 0.58629328 3.2371533 21
48.88171 1.083674 4.2720571 76
26.356524 0.584306 1.3972216 30
2.7089255 0.060055014 0.047078483 33
0.1 0.1 0.1 -1
0.1 0.1 0.1 -1
1.2953281 0.024871571 -0.25279728 225
1.5896105 0.03052208 -0.25358841 170
1.9052298 0.03658228 -0.23486386 64
3.6453571 0.069994435 -0.31948638 65
3.6541486 0.070163235 -0.1946179 7
2.659097 0.051057268 -0.046873659 3
26.561874 0.51001406 7.1032901 161
31.488373 0.60460764 7.2594247 89
25.743965 0.49430937 5.0016842 42
26.387735 0.50667042 4.1700258 15
26.666119 0.51201564 3.2638767 31
29.88063 0.57373738 2.6112819 109
119.80974 2.3004644 6.351007 -1
3.6287832 0.069676198 0.063060842 39
0.1 0.1 0.1 -1
0.1 0.1 0.1 -1
1.2757761 0.020264214 -0.24896702 203
1.6291987 0.025877917 -0.25988874 69
1.895417 0.030106485 -0.23364061 46
3.625648 0.057589184 -0.31774056 67
3.654361 0.058045257 -0.1946179 5
2.6592515 0.042239103 -0.046873659 4
27.06571 0.42990717 7.2376065 154
31.149191 0.4947685 7.1808109 106
25.882875 0.41111925 5.0283804 48
26.527538 0.42135894 4.1918745 125
26.657745 0.42342713 3.2626619 29
29.742916 0.47243148 2.5990961 22
26.569355 0.42202315 1.4083358 1
3.6289945 0.057642337 0.063060842 30
0.1 0.1 0.1 -1
0.1 0.1 0.1 -1
1.2856476 0.016381199 -0.25088215 199
1.5700257 0.020004628 -0.25043824 225
1.8855782 0.024025269 -0.23241736 50
3.6357722 0.046325531 -0.31861347 42
3.6744955 0.046818927 -0.19568139 3
119.97163 1.5286297 -2.1146011 -1
26.85441 0.34216794 7.1807804 227
116.92433 1.4898022 26.95331 -1
117.78857 1.5008141 22.882277 -1
27.00281 0.34405881 4.2667851 27
26.698645 0.34018326 3.2675207 111
29.754215 0.37911612 2.5999663 13
119.82209 1.5267243 6.351007 -1
3.6391554 0.046368636 0.063234568 10
0.1 0.1 0.1 -1
0.1 0.1 0.1 -1
1.2856927 0.012342144 -0.25088215 194
1.6293291 0.015640916 -0.25988874 76
1.8856443 0.018101443 -0.23241736 49
3.6458611 0.03499883 -0.31948638 62
3.6746244 0.035274945 -0.19568139 4
3.5492852 0.03407174 -0.062556952 1
26.76841 0.25696617 7.1575332 159
31.278357 0.30025989 7.2100105 100
27.062876 0.25979292 5.2572031 49
26.40126 0.25344169 4.1715865 60
29.647453 0.28460386 3.628284 42
30.07403 0.28869882 2.62782 101
26.291887 0.25239176 1.3935168 24
3.619287 0.034743726 0.062887125 27
0.1 0.1 0.1 -1
0.1 0.1 0.1 -1
1.2955399 0.0083663473 -0.25279728 177
1.5898703 0.010267077 -0.25358841 197
1.8757672 0.012113344 -0.23119412 48
3.6459532 0.023544865 -0.31948638 39
3.6747172 0.023730617 -0.19568139 12
3.6293607 0.023437714 -0.063966684 2
26.759424 0.17280723 7.1549501 129
27.615295 0.17833428 6.3654733 95
26.896681 0.1736936 5.2247863 33
26.392048 0.17043479 4.1700258 34
29.419909 0.18998812 3.6003461 53
31.469446 0.20322365 2.7496798 84
26.392408 0.1704371 1.3988093 26
3.6393747 0.023502383 0.063234568 13
0.1 0.1 0.1 -1
0.1 0.1 0.1 -1
1.2955598 0.0042962544 -0.25279728 181
1.6293951 0.0054032989 -0.25988874 63
1.8658712 0.0061874855 -0.22997087 49
3.6659327 0.012156738 -0.3212322 35
3.6647878 0.012152941 -0.19514965 6
3.6594117 0.012135113 -0.064495333 15
26.470018 0.087778226 7.0774598 148
27.596231 0.091512904 6.360981 83
27.054157 0.089715309 5.2552962 37
26.402332 0.087553769 4.1715865 34
25.757704 0.085416093 3.1521249 70
31.56955 0.10468897 2.7583842 80
26.243025 0.087025478 1.3908706 25
3.6494291 0.01210201 0.063408285 18
0.1 0.1 0.1 -1
0.1 0.1 0.1 -1
1.2955669 0.00022611908 -0.25279728 186
1.6096537 0.00028093759 -0.25673857 227
1.8857312 0.00032912218 -0.23241736 56
3.6858764 0.00064330682 -0.32297805 66
3.6448362 0.0006361439 -0.19408616 5
3.6394348 0.00063520123 -0.064142905 10
26.450842 0.0046165427 7.0722938 129
27.304047 0.0047654551 6.2935977 226
26.926691 0.0046995943 5.2305069 34
26.501251 0.0046253409 4.1871929 60
29.4503 0.0051400471 3.6039903 56
31.589647 0.0055134334 2.7601249 28
26.083391 0.0045524109 1.3824025 23
3.6494491 0.00063694903 0.063408285 30
0.1 0.1 0.1 -1
0.1 0.1 0.1 -1
1.2857463 -0.0038148973 -0.25088215 183
1.6491473 -0.0048931325 -0.2630389 60
1.8559483 -0.0055067255 -0.22874762 53
3.6858602 -0.0109362 -0.32297805 110
3.6448202 -0.010814431 -0.19408616 5
3.6494172 -0.01082807 -0.064319119 9
26.383102 -0.078280471 7.0542126 165
27.342905 -0.081128269 6.3025823 130
26.867674 -0.079718225 5.2190657 32
26.501135 -0.078630678 4.1871929 33
29.956392 -0.088882662 3.6659396 35
48.823772 -0.14486347 4.2659645 89
26.133207 -0.077539012 1.3850487 42
3.6494331 -0.010828118 0.063408285 24
0.1 0.1 0.1 -1
0.1 0.1 0.1 -1
1.285728 -0.0078541627 -0.25088215 191
0.1 0.1 0.1 -1
1.8559219 -0.011337322 -0.22874762 58
3.7057309 -0.022637304 -0.32472387 87
3.6347826 -0.022203898 -0.19355442 5
3.6393669 -0.022231903 -0.064142905 9
26.324762 -0.16081083 7.0387144 137
27.332771 -0.16696848 6.3003364 154
27.024351 -0.16508442 5.2495756 40
26.510633 -0.16194627 4.1887531 58
32.149559 -0.19639292 3.9343865 87
48.842999 -0.2983686 4.267705 59
26.222708 -0.16018739 1.389812 37
3.6393828 -0.022232002 0.063234568 35
0.1 0.1 0.1 -1
0.1 0.1 0.1 -1
1.2955115 -0.011984141 -0.25279728 191
1.6392092 -0.015163519 -0.26146382 65
1.8856505 -0.017443227 -0.23241736 55
3.7255645 -0.034463365 -0.32646969 93
3.6446803 -0.033715148 -0.19408616 7
3.6392791 -0.033665184 -0.064142905 11
26.517332 -0.24529882 7.0903749 150
27.107998 -0.25076279 6.2486758 65
27.062963 -0.25034618 5.2572031 24
27.290281 -0.25244898 4.3120437 22
119.10633 -1.1017941 14.576301 -1
28.330847 -0.26207474 2.4754953 137
26.990963 -0.24968013 1.4305643 60
3.6492929 -0.033757817 0.063408285 41
0.1 0.1 0.1 -1
0.1 0.1 0.1 -1
1.2954674 -0.016054044 -0.25279728 188
1.6095302 -0.019946057 -0.25673857 225
1.8855864 -0.023367077 -0.23241736 46
3.7353988 -0.046290826 -0.3273426 64
3.6645265 -0.04541254 -0.19514965 4
3.649153 -0.045222025 -0.064319119 11
26.342552 -0.32644933 7.0438805 138
27.058357 -0.33531994 6.2374449 102
27.062044 -0.33536562 5.2572031 30
26.51897 -0.3286356 4.1903138 34
119.10228 -1.4759717 14.576301 -1
28.160542 -0.34897873 2.4606981 28
119.82262 -1.4848984 6.351007 -1
3.649169 -0.045222223 0.063408285 60
0.1 0.1 0.1 -1
0.1 0.1 0.1 -1
1.2855968 -0.019971335 -0.25088215 183
1.6390816 -0.025462607 -0.26146382 69
1.87558 -0.029136535 -0.23119412 49
3.7551563 -0.058335148 -0.32908842 36
3.7442429 -0.058165614 -0.19940358 12
3.648993 -0.056685936 -0.064319119 4
26.46697 -0.41115591 7.0774598 130
27.164347 -0.42198944 6.2621522 156
26.913628 -0.41809458 5.2286 109
26.557312 -0.41255933 4.1965566 31
119.09705 -1.8501346 14.576301 -1
28.298758 -0.43961215 2.4728839 177
29.365238 -0.45617959 1.5565259 75
3.6590061 -0.056841489 0.063582011 37
0.1 0.1 0.1 -1
0.1 0.1 0.1 -1
1.3247806 -0.024743183 -0.25854266 168
1.6093731 -0.030058574 -0.25673857 226
1.8953255 -0.035399362 -0.23364061 43
3.8047547 -0.071062148 -0.333453 111
3.8638511 -0.072165899 -0.2057845 17
3.6487968 -0.068149291 -0.064319119 7
115.90751 -2.1648271 30.996174 -1
26.987518 -0.50405109 6.2217221 116
27.147736 -0.50704354 5.2743645 59
26.555885 -0.49598941 4.1965566 66
119.09065 -2.2242794 14.576301 -1
27.500412 -0.51363057 2.4032497 62
29.413582 -0.5493632 1.5591722 48
3.6688063 -0.068523012 0.063755728 94
0.1 0.1 0.1 -1
0.1 0.1 0.1 -1
1.3050761 -0.028248975 -0.2547124 162
1.6487683 -0.035688352 -0.2630389 66
1.8852895 -0.040807966 -0.23241736 44
3.8144867 -0.082566328 -0.33432591 50
3.8636198 -0.083629839 -0.2057845 15
40.854084 -0.88430554 -0.72019792 47
26.6185 -0.57616973 7.1187882 188
26.635183 -0.57653087 6.1408625 126
27.155926 -0.58780259 5.2762713 58
26.988804 -0.58418512 4.2652245 133
26.128912 -0.56557238 3.1982832 105
27.329453 -0.59155864 2.3884525 39
119.80376 -2.5932076 6.351007 -1
3.6885791 -0.079841003 0.064103171 123
0.1 0.1 0.1 -1
0.1 0.1 0.1 -1
1.3147985 -0.032362595 -0.25662753 157
1.5795498 -0.038879216 -0.25201333 225
1.8851602 -0.046401545 -0.23241736 37
3.8441014 -0.09461914 -0.33694467 41
119.79395 -2.9486215 -6.3809147 -1
40.841286 -1.0052719 -0.72002167 7
26.684277 -0.65680975 7.136869 165
26.584648 -0.65435749 6.129632 152
27.104996 -0.6671654 5.2667375 125
26.937578 -0.66304457 4.2574215 55
30.850441 -0.7593562 3.7764764 40
27.367413 -0.67362458 2.3919342 110
28.25178 -0.69539249 1.4977791 38
26.148132 -0.64361304 0.45445502 151
0.1 0.1 0.1 -1
0.1 0.1 0.1 -1
1.324495 -0.036996495 -0.25854266 157
1.6485115 -0.046047095 -0.2630389 69
1.894917 -0.052929826 -0.23364061 52
3.9134722 -0.10931318 -0.34305504 23
16.699818 -0.46646816 -0.88960588 31
40.827732 -1.1404219 -0.71984547 118
26.672295 -0.74502462 7.1342859 225
26.660257 -0.74468845 6.1476007 59
27.622705 -0.77157205 5.3678007 82
26.9846 -0.75374812 4.2652245 87
30.619545 -0.85528135 3.7485385 60
27.384945 -0.76493078 2.3936751 25
119.7851 -3.3459008 6.351007 -1
26.175838 -0.73115736 0.45497617 17
0.1 0.1 0.1 -1
0.1 0.1 0.1 -1
1.3341824 -0.041462198 -0.26045781 156
1.6088771 -0.049998846 -0.25673857 225
1.8848213 -0.058574326 -0.23241736 38
15.871492 -0.49323612 -1.3914243 142
16.398838 -0.50962442 -0.87365359 56
28.221991 -0.87705082 -0.49763614 27
26.689135 -0.82941449 7.139452 188
26.94998 -0.83752072 6.2149839 148
117.74129 -3.6590297 22.882277 -1
26.834007 -0.83391666 4.2418151 81
29.753567 -0.92464739 3.6428604 46
27.422235 -0.85219693 2.3971567 67
119.77399 -3.7221997 6.351007 -1
26.233374 -0.81525087 0.45601851 100
0.1 0.1 0.1 -1
0.1 0.1 0.1 -1
1.3830913 -0.047331881 -0.27003345 143
1.6481897 -0.056404021 -0.2630389 61
1.8846279 -0.06449537 -0.23241736 55
15.73048 -0.53832537 -1.3792036 1
16.197557 -0.55430961 -0.86301875 57
40.829754 -1.3972678 -0.72002167 41
26.725018 -0.91457826 7.1497841 206
26.596621 -0.91018432 6.1341243 166
27.774284 -0.95048612 5.3983102 57
32.152096 -1.1003027 5.0829992 146
27.578003 -0.94376898 3.376843 26
119.47461 -4.0886364 10.445127 -1
119.76171 -4.0984616 6.351007 -1
26.340603 -0.90142292 0.45792943 54
0.1 0.1 0.1 -1
0.1 0.1 0.1 -1
1.3927438 -0.052043252 -0.27194858 127
0.1 0.1 0.1 -1
1.9042519 -0.071156994 -0.23486386 40
119.45856 -4.4638591 -10.474963 -1
16.046051 -0.5995996 -0.85504258 89
40.825161 -1.5255312 -0.72002167 97
26.731667 -0.9988935 7.1523671 203
26.729958 -0.9988296 6.1655698 134
27.682875 -1.0344378 5.3811488 46
27.904133 -1.0427055 4.4119244 39
27.525307 -1.0285498 3.3707695 52
27.963871 -1.0449377 2.4450302 32
26.833586 -1.002702 1.4231548 34
26.407581 -0.98678327 0.45914549 79
0.1 0.1 0.1 -1
0.1 0.1 0.1 -1
1.4023902 -0.05657097 -0.2738637 111
1.6478144 -0.066471122 -0.2630389 60
1.8841988 -0.076006629 -0.23241736 45
15.826435 -0.63842201 -1.3879327 90
16.004292 -0.64559656 -0.85291564 97
40.820457 -1.646655 -0.72002167 86
26.796154 -1.0809292 7.1704483 197
116.8388 -4.7131562 26.95331 -1
117.70242 -4.7479935 22.882277 -1
27.762743 -1.1199204 4.3900757 36
27.462626 -1.107814 3.3634813 25
29.961391 -1.2086115 2.6199863 22
27.000116 -1.0891567 1.432152 48
27.363613 -1.1038197 0.47582275 21
0.1 0.1 0.1 -1
0.1 0.1 0.1 -1
1.3826048 -0.059882298 -0.27003345 97
1.6180121 -0.070078075 -0.25831366 226
1.8740494 -0.081167363 -0.23119412 42
15.824471 -0.68537712 -1.3879327 41
16.022259 -0.6939435 -0.85397911 89
28.608732 -1.239079 -0.50468481 125
27.815897 -1.2047404 7.4442477 171
116.8243 -5.0598025 26.95331 -1
26.813206 -1.1613126 5.2133451 1
27.74943 -1.2018616 4.388515 59
27.637718 -1.1970232 3.3853457 49
31.231621 -1.3526795 2.731401 22
119.71958 -5.1852007 6.351007 -1
27.370205 -1.185437 0.47599646 59
0.1 0.1 0.1 -1
0.1 0.1 0.1 -1
1.4020071 -0.065381274 -0.2738637 87
1.6473641 -0.076823264 -0.2630389 59
1.883684 -0.08784382 -0.23241736 35
15.81216 -0.73738515 -1.3870597 49
16.019869 -0.74707139 -0.85397911 86
28.444664 -1.32649 -0.50186533 1
29.761082 -1.3878798 7.9660168 170
26.08687 -1.2165365 6.0195723 71
117.67026 -5.4874411 22.882277 -1
27.84396 -1.2984767 4.4041214 26
27.633596 -1.2886666 3.3853457 23
119.41477 -5.5687947 10.445127 -1
28.778292 -1.3420483 1.5268879 39
119.85164 -5.5891676 2.084656 -1
0.1 0.1 0.1 -1
0.1 0.1 0.1 -1
1.3919921 -0.06929747 -0.27194858 85
1.5879369 -0.07905218 -0.25358841 172
1.8734862 -0.093267664 -0.23119412 42
15.829665 -0.78804743 -1.3888055 39
16.027416 -0.79789203 -0.85451084 61
28.250622 -1.4063993 -0.49851722 134
29.756575 -1.48137 7.9660168 166
26.160778 -1.3023608 6.0375414 188
26.461994 -1.3173561 5.1466055 105
118.38303 -5.8934565 18.727659 -1
27.500534 -1.3690577 3.3695548 37
28.884048 -1.4379331 2.5268505 11
28.744011 -1.4309617 1.5253001 31
25.614408 -1.2751608 0.44559523 15
0.1 0.1 0.1 -1
0.1 0.1 0.1 -1
1.3917675 -0.073670194 -0.27194858 72
1.6567104 -0.087694369 -0.26461399 39
1.873184 -0.09915293 -0.23119412 34
15.827111 -0.8377738 -1.3888055 44
16.004887 -0.84718394 -0.85344738 82
27.986467 -1.481403 -0.49393559 41
29.96401 -1.58608 8.0228434 159
116.77035 -6.180985 26.95331 -1
26.389105 -1.39685 5.1332574 1
118.36393 -6.2653379 18.727659 -1
27.486185 -1.4549216 3.36834 20
28.799805 -1.5244552 2.519887 26
119.66429 -6.3341699 6.351007 -1
25.570337 -1.3535104 0.44490033 54
0.1 0.1 0.1 -1
0.1 0.1 0.1 -1
1.4013287 -0.078591779 -0.2738637 62
0.1 0.1 0.1 -1
1.8827724 -0.10559296 -0.23241736 39
15.834348 -0.88804972 -1.3896785 44
119.64222 -6.7099853 -6.3809147 -1
27.911797 -1.5653985 -0.49270207 91
30.026398 -1.6839933 8.0409241 165
26.200726 -1.4694352 6.0487719 97
117.61331 -6.5961967 22.882277 -1
118.34367 -6.6371574 18.727659 -1
27.540941 -1.5445995 3.3756282 30
28.774981 -1.6138091 2.5181463 19
27.837126 -1.5612106 1.4776676 28
25.595907 -1.4355148 0.44542152 96
0.1 0.1 0.1 -1
0.1 0.1 0.1 -1
1.3422885 -0.079511531 -0.26237294 125
1.6659845 -0.098685928 -0.26618907 1
1.8725239 -0.11092045 -0.23119412 37
15.831479 -0.93779033 -1.3896785 47
119.62054 -7.0858188 -6.3809147 -1
27.876799 -1.6513044 -0.49217343 128
30.011316 -1.7777443 8.0383415 171
26.166798 -1.5500112 6.0420337 79
26.92857 -1.5951355 5.2400413 67
27.174671 -1.6097134 4.3011193 23
27.615221 -1.6358098 3.3853457 31
27.924475 -1.6541287 2.44416 33
27.812145 -1.6474746 1.4766091 27
119.77194 -7.0947866 2.084656 -1
0.1 0.1 0.1 -1
0.1 0.1 0.1 -1
1.3616238 -0.084950365 -0.26620319 74
0.1 0.1 0.1 -1
1.8820719 -0.11742061 -0.23241736 35
15.84834 -0.98876232 -1.3914243 51
119.59769 -7.4615822 -6.3809147 -1
27.881453 -1.7394962 -0.49234962 120
29.610266 -1.8473552 7.9324374 183
27.328869 -1.7050211 6.3115668 139
117.56955 -7.3350482 22.882277 -1
26.5977 -1.6594042 4.2106023 69
118.88029 -7.4168239 14.576301 -1
27.779943 -1.7331632 2.4319739 21
27.7869 -1.7335973 1.4755507 26
25.496571 -1.5907059 0.44385803 18
0.1 0.1 0.1 -1
0.1 0.1 0.1 -1
1.3123957 -0.085788921 -0.25662753 125
1.6357882 -0.1069285 -0.26146382 67
1.8718114 -0.12235691 -0.23119412 40
15.835396 -1.0351311 -1.3905513 59
119.57503 -7.8164024 -6.3809147 -1
27.906099 -1.8241709 -0.49287829 144
29.662495 -1.9389833 7.9479356 147
30.53252 -1.9958553 7.0527825 138
117.54726 -7.6838512 22.882277 -1
26.651796 -1.7421795 4.2199659 81
27.683952 -1.8096496 3.3950634 36
27.54604 -1.8006345 2.4119542 76
27.801563 -1.8173376 1.4766091 28
26.220076 -1.7139586 0.45653966 36
0.1 0.1 0.1 -1
0.1 0.1 0.1 -1
1.3610957 -0.093028858 -0.26620319 62
1.6453159 -0.11245488 -0.2630389 94
1.8516365 -0.12655659 -0.22874762 46
15.832255 -1.082111 -1.3905513 91
119.55132 -8.171154 -6.3809147 -1
28.040216 -1.9165069 -0.49534532 146
29.685526 -2.0289614 7.9556847 219
30.088984 -2.0565372 6.9517078 168
28.362446 -1.9385309 5.5222559 74
26.853455 -1.8353935 4.2527394 69
27.60914 -1.8870436 3.3865604 18
27.371614 -1.8708091 2.3971567 42
24.906853 -1.7023462 1.3231264 51
26.085196 -1.7828842 0.4542813 29
0.1 0.1 0.1 -1
0.1 0.1 0.1 -1
1.3020411 -0.093331464 -0.2547124 143
1.6449339 -0.11791033 -0.2630389 61
1.8908046 -0.13553457 -0.23364061 49
15.888198 -1.1388801 -1.3957889 60
119.52356 -8.5675554 -6.3809147 -1
40.769047 -2.9223616 -0.72037411 84
115.63104 -8.2885361 30.996174 -1
26.748194 -1.9173343 6.1812925 1
30.568716 -2.1911929 5.9532056 66
27.192047 -1.9491502 4.3073616 100
27.612633 -1.9792981 3.3877752 27
27.424881 -1.9658399 2.4023793 12
25.000675 -1.7920707 1.328419 29
119.67484 -8.5783987 2.084656 -1
0.1 0.1 0.1 -1
0.1 0.1 0.1 -1
1.3604666 -0.10181643 -0.26620319 59
1.6642507 -0.12455144 -0.26618907 84
1.8903695 -0.14147402 -0.23364061 43
3.5265868 -0.26392746 -0.30988434 48
119.49606 -8.9430065 -6.3809147 -1
40.739723 -3.0489345 -0.72002167 141
30.953087 -2.3165088 8.2992258 163
27.02384 -2.0224466 6.2464294 203
26.900545 -2.0132191 5.2400413 93
27.353239 -2.0470986 4.3338928 51
27.59638 -2.065295 3.3865604 22
27.329161 -2.0452964 2.3945456 16
25.044714 -1.87433 1.3310652 89
26.820934 -2.0072613 0.4673104 13
0.1 0.1 0.1 -1
0.1 0.1 0.1 -1
0.1 0.1 0.1 -1
1.6244701 -0.12670751 -0.25988874 95
1.8998107 -0.14818388 -0.23486386 43
3.4065602 -0.26570928 -0.29940936 1
119.46737 -9.3183699 -6.3809147 -1
40.90937 -3.190902 -0.72319359 118
30.916761 -2.4114854 8.2914762 191
26.900774 -2.0982411 6.2194762 120
117.44143 -9.1603479 22.882277 -1
26.332375 -2.0539064 4.1731467 103
27.64913 -2.1566126 3.3938487 31
27.302736 -2.1295941 2.3928046 38
119.46895 -9.3184929 6.351007 -1
26.645037 -2.0782938 0.46435714 96
0.1 0.1 0.1 -1
0.1 0.1 0.1 -1
1.3598 -0.11036243 -0.26620319 59
1.6535925 -0.13420685 -0.26461399 59
1.8894434 -0.1533487 -0.23364061 35
3.4255672 -0.27802169 -0.30115521 21
119.4375 -9.6936407 -6.3809147 -1
40.929043 -3.3218331 -0.72372222 227
26.990038 -2.1905324 7.2401896 143
27.136862 -2.2024488 6.275629 161
117.41207 -9.5292559 22.882277 -1
25.902452 -2.1022632 4.1060395 66
31.520439 -2.5582235 3.8700078 40
119.15276 -9.6705313 10.445127 -1
119.43909 -9.6937695 6.351007 -1
26.708136 -2.1676531 0.46557319 63
0.1 0.1 0.1 -1
0.1 0.1 0.1 -1
0.1 0.1 0.1 -1
0.1 0.1 0.1 -1
1.8988421 -0.16011775 -0.23486386 50
119.11919 -10.044593 -10.474963 -1
119.40646 -10.068816 -6.3809147 -1
40.958256 -3.4537594 -0.7244271 149
26.96377 -2.2736897 7.2350235 141
24.721724 -2.0846317 5.7185941 60
25.246817 -2.1289096 4.9215961 1
118.11047 -9.9595337 18.727659 -1
31.383667 -2.6463926 3.8542168 35
119.12179 -10.044812 10.445127 -1
25.583174 -2.1572726 1.3607032 28
26.30267 -2.2179432 0.45862433 52
0.1 0.1 0.1 -1
0.1 0.1 0.1 -1
1.3590797 -0.11890407 -0.26620319 48
1.6723918 -0.14631532 -0.26776415 46
1.8785554 -0.1643523 -0.23241736 38
3.3741329 -0.29519838 -0.29679063 22
119.37424 -10.443892 -6.3809147 -1
40.967125 -3.5841591 -0.72477955 147
26.97574 -2.3600717 7.2401896 144
24.695637 -2.1605883 5.7141018 147
117.34988 -10.266785 22.882277 -1
25.800173 -2.2572227 4.0919938 8
31.14777 -2.7250767 3.8262789 77
24.165274 -2.1141875 2.1194906 1
27.914047 -2.4421625 1.4850771 87
119.52532 -10.45711 2.084656 -1
0.1 0.1 0.1 -1
0.1 0.1 0.1 -1
0.1 0.1 0.1 -1
0.1 0.1 0.1 -1
1.8977985 -0.17204528 -0.23486386 46
3.2640564 -0.29590362 -0.28718859 130
119.34084 -10.818866 -6.3809147 -1
40.955666 -3.7128432 -0.72477955 143
27.054785 -2.4526565 7.2634368 191
24.698433 -2.2390409 5.7163477 155
25.301376 -2.2937009 4.9349442 66
118.04556 -10.701442 18.727659 -1
30.447075 -2.7601852 3.7412505 50
24.049377 -2.1802008 2.1099157 184
27.776949 -2.5181243 1.4781969 25
26.30813 -2.3849683 0.45897177 25
0.1 0.1 0.1 -1
0.1 0.1 0.1 -1
1.3680778 -0.12835786 -0.26811832 43
1.6812714 -0.15774278 -0.26933923 39
1.8873672 -0.17707941 -0.23364061 36
3.1738462 -0.29778138 -0.27933237 47
119.30626 -11.193732 -6.3809147 -1
40.933842 -3.8405566 -0.72460335 138
30.81736 -2.8913927 8.275979 171
24.788296 -2.3257248 5.7388086 81
25.19631 -2.3640063 4.9158754 36
118.01136 -11.07224 18.727659 -1
118.5906 -11.126586 14.576301 -1
24.022573 -2.2538822 2.108175 49
27.888208 -2.6165695 1.4845479 40
26.768381 -2.5115035 0.46713668 45
0.1 0.1 0.1 -1
0.1 0.1 0.1 -1
0.1 0.1 0.1 -1
0.1 0.1 0.1 -1
1.8967122 -0.18363498 -0.23486386 42
3.1233714 -0.3023971 -0.27496779 30
119.27252 -11.547671 -6.3809147 -1
40.89241 -3.9591022 -0.72407466 68
30.770182 -2.9790928 8.2656469 225
24.887976 -2.4095924 5.7635159 142
25.443226 -2.4633503 4.9654541 65
26.859655 -2.6004853 4.2636638 14
30.439526 -2.9470797 3.742465 70
23.549744 -2.2800279 2.0672648 35
26.697521 -2.5847881 1.4215671 61
119.42348 -11.562286 2.084656 -1
0.1 0.1 0.1 -1
0.1 0.1 0.1 -1
1.3575256 -0.13549908 -0.26620319 53
1.6803057 -0.16771682 -0.26933923 34
1.9060348 -0.19024757 -0.23608711 39
3.1125479 -0.31067356 -0.27409488 30
119.23774 -11.901508 -6.3809147 -1
40.890434 -4.081408 -0.72425091 223
115.35453 -11.513912 30.996174 -1
24.521954 -2.4476163 5.6804099 228
25.523718 -2.5476058 4.9826155 45
26.78302 -2.6733007 4.2527394 120
118.52248 -11.830117 14.576301 -1
23.63209 -2.3587961 2.0750988 145
119.23932 -11.901667 6.351007 -1
26.693312 -2.6643467 0.46609434 1
0.1 0.1 0.1 -1
0.1 0.1 0.1 -1
1.3277557 -0.13721021 -0.26045781 129
0.1 0.1 0.1 -1
1.9152315 -0.19791992 -0.23731036 39
3.1213534 -0.32256049 -0.27496779 66
119.19547 -12.317654 -6.3809147 -1
40.885883 -4.2251449 -0.7244271 154
27.627224 -2.854996 7.426167 173
116.31441 -12.019924 26.95331 -1
29.986814 -3.0988359 5.8559561 75
26.7244 -2.761698 4.2449365 35
27.349241 -2.8262691 3.364696 38
23.593985 -2.438201 2.0724874 42
26.571009 -2.7458465 1.4157453 34
26.474993 -2.7359245 0.46244621 76
0.1 0.1 0.1 -1
0.1 0.1 0.1 -1
1.3663568 -0.14553905 -0.26811832 50
1.6987957 -0.18094915 -0.2724894 50
1.9146003 -0.2039358 -0.23731036 50
3.1599479 -0.33658543 -0.27845943 27
119.15618 -12.692056 -6.3809147 -1
40.892292 -4.3556886 -0.72477955 154
27.877489 -2.9694023 7.4959083 165
116.27607 -12.385277 26.95331 -1
25.05724 -2.6690004 4.8949003 52
26.853098 -2.8602881 4.2667851 95
31.189573 -3.3221927 3.8384256 84
23.833858 -2.5386903 2.0942481 40
24.903973 -2.6526747 1.3273605 23
26.426498 -2.8148484 0.46175131 30
0.1 0.1 0.1 -1
0.1 0.1 0.1 -1
0.1 0.1 0.1 -1
1.6589855 -0.18168846 -0.26618907 129
1.9435844 -0.21285711 -0.24098012 45
3.1787405 -0.34812871 -0.28020528 49
3.3650835 -0.36853659 -0.18026085 1
40.869251 -4.4759107 -0.72460335 147
28.012604 -3.0678792 7.5346532 223
116.23881 -12.73022 26.95331 -1
25.049212 -2.7433348 4.8949003 31
26.893587 -2.9453268 4.2745886 68
25.0818 -2.7469039 3.0877464 114
23.836123 -2.6104801 2.0951185 48
24.886065 -2.7254674 1.3268312 35
26.41803 -2.8932447 0.46175131 33
0.1 0.1 0.1 -1
0.1 0.1 0.1 -1
1.3752224 -0.15474202 -0.27003345 50
1.697692 -0.19102676 -0.2724894 58
1.9528069 -0.21973266 -0.24220335 37
3.1677942 -0.35644478 -0.27933237 55
3.3044357 -0.37181988 -0.17707039 10
40.865726 -4.5982704 -0.72477955 41
115.20074 -12.962553 30.996174 -1
27.38459 -3.0813537 6.3519964 143
25.197041 -2.8352072 4.9254098 54
26.904362 -3.0273175 4.2777095 29
25.024221 -2.8157616 3.0816729 1
23.729277 -2.6700525 2.0864143 101
24.907639 -2.8026435 1.328419 60
26.439137 -2.9749699 0.46227247 28
0.1 0.1 0.1 -1
0.1 0.1 0.1 -1
0.1 0.1 0.1 -1
1.6676207 -0.19324525 -0.26776415 91
1.9816444 -0.22963457 -0.24587311 36
2.8895178 -0.3348397 -0.25489077 63
3.2139094 -0.37243044 -0.17228471 26
119.18382 -13.811118 -2.1146011 -1
26.294209 -3.0469944 7.0774598 197
27.229027 -3.1553218 6.318305 76
23.744314 -2.7515106 4.6431952 29
26.864738 -3.1131079 4.2730279 150
25.024607 -2.8998721 3.0828874 32
24.234875 -2.8083572 2.1316764 20
119.03526 -13.793903 6.351007 -1
26.419193 -3.0614779 0.46209875 33
0.1 0.1 0.1 -1
0.1 0.1 0.1 -1
1.3936867 -0.16594037 -0.2738637 79
1.7258408 -0.20548856 -0.27721465 62
1.9907684 -0.23703238 -0.24709636 37
2.7598562 -0.3286044 -0.24354289 36
2.86567 -0.34120321 -0.15367369 25
3.2465606 -0.38655424 -0.05762288 1
22.735138 -2.7069767 6.1217446 168
116.11367 -13.825163 26.95331 -1
23.755047 -2.828413 4.6470089 23
26.256527 -3.1262536 4.1778288 56
25.419483 -3.0265903 3.13269 57
24.433668 -2.9092135 2.1499555 15
118.99134 -14.167795 6.351007 -1
26.518658 -3.1574645 0.4640097 107
0.1 0.1 0.1 -1
0.1 0.1 0.1 -1
1.3834456 -0.16888545 -0.27194858 130
1.6958163 -0.20701841 -0.2724894 175
2.0393152 -0.24895138 -0.2532126 52
2.640208 -0.32230595 -0.23306793 38
2.7258732 -0.33276361 -0.1462293 34
3.2255497 -0.39376211 -0.057270449 10
22.698238 -2.7709093 6.1139956 199
22.895229 -2.7949572 5.3165402 1
23.785528 -2.9036412 4.6546364 41
117.65619 -14.362993 18.727659 -1
118.23369 -14.433492 14.576301 -1
24.454596 -2.9853184 2.1525667 129
27.130234 -3.3119495 1.4485588 40
26.578646 -3.2446139 0.46522573 131
0.1 0.1 0.1 -1
0.1 0.1 0.1 -1
1.4316334 -0.17908065 -0.28152424 126
1.7539874 -0.21940339 -0.28193989 1
2.4226456 -0.30304471 -0.30091932 21
2.5206225 -0.31530049 -0.22259296 46
2.6257877 -0.32845542 -0.14091188 32
3.2541306 -0.4070538 -0.057799097 84
22.699503 -2.8394432 6.1165786 154
22.925512 -2.8677142 5.3255248 156
24.010582 -3.003444 4.7004008 30
28.266338 -3.5357893 4.5008812 72
118.19035 -14.784234 14.576301 -1
24.208389 -3.0281873 2.1316764 54
27.090561 -3.3887134 1.4469711 49
40.73634 -5.0956411 0.71329981 25
0.1 0.1 0.1 -1
0.1 0.1 0.1 -1
1.4310317 -0.18382713 -0.28152424 123
0.1 0.1 0.1 -1
2.4117832 -0.30981228 -0.29969609 43
2.4306374 -0.31223425 -0.21473674 9
2.5949707 -0.33334413 -0.13931665 40
3.223012 -0.41402093 -0.057270449 24
22.57498 -2.8999314 6.0855823 109
22.935205 -2.9462054 5.3300171 165
116.83809 -15.008759 22.882277 -1
117.56362 -15.10196 18.727659 -1
25.439625 -3.2679172 3.1387634 30
24.287142 -3.1198721 2.1395104 31
118.85519 -15.267872 6.351007 -1
28.511385 -3.6625087 0.49944884 46
0.1 0.1 0.1 -1
0.1 0.1 0.1 -1
1.4596399 -0.19216524 -0.28726962 129
1.7721155 -0.23330343 -0.28509006 58
2.3123982 -0.30443299 -0.28746358 21
2.3802614 -0.31336737 -0.21037218 51
2.603811 -0.34279823 -0.13984838 30
118.95491 -15.660711 -2.1146011 -1
22.527445 -2.9657946 6.0752501 71
22.925837 -3.0182438 5.3300171 52
23.873896 -3.1430581 4.6775188 1
117.5156 -15.471222 18.727659 -1
25.675259 -3.3802118 3.1691306 33
24.593279 -3.2377667 2.1673641 64
28.226479 -3.7160864 1.5088934 42
28.658346 -3.7729428 0.50222838 95
0.1 0.1 0.1 -1
0.1 0.1 0.1 -1
1.4979012 -0.20225798 -0.29493016 105
0.1 0.1 0.1 -1
2.2425265 -0.30280292 -0.27890083 31
2.2804868 -0.30792862 -0.20164305 17
2.6026599 -0.35143089 -0.13984838 24
118.90232 -16.055094 -2.1146011 -1
22.603651 -3.0521164 6.0984974 143
23.388887 -3.1581452 5.4400764 131
116.73873 -15.762949 22.882277 -1
26.370588 -3.5607569 4.2043595 5
25.713091 -3.4719765 3.175204 100
25.135265 -3.393954 2.2161078 18
28.184311 -3.8056595 1.5073056 103
118.90284 -16.055164 2.084656 -1
0.1 0.1 0.1 -1
0.1 0.1 0.1 -1
1.5069808 -0.20830669 -0.29684529 48
2.1031656 -0.29071599 -0.3386429 1
2.172744 -0.30033368 -0.27033809 25
2.2203002 -0.30690727 -0.19640556 28
2.5916512 -0.35823831 -0.13931665 49
40.874943 -5.6500545 -0.72724658 50
22.59395 -3.1231127 6.0984974 136
23.40781 -3.2356105 5.4468145 89
25.467295 -3.5202887 4.9940567 95
26.408195 -3.6503472 4.212163 141
27.363743 -3.7824306 3.380487 1
25.874462 -3.5765707 2.2822604 130
28.765732 -3.9762247 1.5390607 93
29.168217 -4.0318589 0.51160932 36
0.1 0.1 0.1 -1
0.1 0.1 0.1 -1
0.1 0.1 0.1 -1
0.1 0.1 0.1 -1
2.1030521 -0.29706204 -0.26177534 27
2.1306045 -0.30095392 -0.18854934 27
2.5806892 -0.36452964 -0.1387849 37
40.857998 -5.7713075 -0.72724658 104
22.584585 -3.1901364 6.0984974 115
23.494593 -3.3186777 5.469276 155
116.64026 -16.475767 22.882277 -1
117.36457 -16.578077 18.727659 -1
24.482512 -3.4582238 3.0257969 38
118.36951 -16.720028 10.445127 -1
28.170425 -3.9791522 1.5078349 44
29.047224 -4.1030025 0.50969839 94
0.1 0.1 0.1 -1
0.1 0.1 0.1 -1
1.5251468 -0.22004874 -0.30067554 1
2.0036638 -0.28908932 -0.32289207 64
2.0333991 -0.29337955 -0.2532126 30
2.0705438 -0.29873881 -0.18331186 27
2.6092467 -0.37646309 -0.14038013 34
40.870384 -5.8967938 -0.72777522 95
22.603704 -3.2612708 6.1062465 225
23.571444 -3.4008965 5.4894905 135
25.319649 -3.6531281 4.9692678 43
26.640251 -3.8436651 4.2527394 40
24.648979 -3.5563636 3.0476615 63
24.718889 -3.5664504 2.1821613 18
28.148611 -4.0612917 1.5073056 92
29.005234 -4.1848855 0.50917721 129
0.1 0.1 0.1 -1
0.1 0.1 0.1 -1
0.1 0.1 0.1 -1
1.9538478 -0.28851914 -0.31501663 23
1.9833229 -0.29287165 -0.24709636 28
2.0399768 -0.30123758 -0.18069312 35
2.6178627 -0.38657236 -0.14091188 46
40.82093 -6.0279102 -0.72724658 1
22.67878 -3.3489106 6.1294937 158
23.453999 -3.4633851 5.4647837 110
24.443098 -3.6094427 4.7995572 120
26.490557 -3.9117851 4.2308908 36
24.656689 -3.6409831 3.0500908 24
24.746347 -3.6542227 2.185643 80
28.885782 -4.2654815 1.5475287 42
118.69476 -17.527319 2.084656 -1
0.1 0.1 0.1 -1
0.1 0.1 0.1 -1
1.6401547 -0.24746449 -0.32365713 64
1.9334024 -0.29170933 -0.31186646 38
1.9038824 -0.28725541 -0.23731036 32
1.9700681 -0.29724142 -0.17458272 34
2.6166353 -0.39479467 -0.14091188 31
40.643608 -6.1322565 -0.7244271 118
22.916512 -3.4576147 6.1966519 149
115.62516 -17.445379 26.95331 -1
24.188972 -3.6496019 4.7518859 35
117.20312 -17.68346 18.727659 -1
24.537165 -3.7021368 3.0367293 60
118.20667 -17.834875 10.445127 -1
28.941359 -4.3666363 1.5512334 31
118.63911 -17.900122 2.084656 -1
0.1 0.1 0.1 -1
0.1 0.1 0.1 -1
1.8527782 -0.28550088 -0.36579001 27
1.8836765 -0.2902621 -0.30399105 76
1.8539249 -0.28567758 -0.23119412 28
1.9100509 -0.29432622 -0.16934524 32
2.6548598 -0.40909633 -0.14303884 46
40.643906 -6.2629571 -0.72477955 16
23.125139 -3.5634313 6.2560611 135
24.414118 -3.7620542 5.6938868 90
24.196791 -3.7285657 4.7556996 49
26.6607 -4.1082377 4.2621031 14
24.505793 -3.7761807 3.0342999 20
118.15005 -18.206142 10.445127 -1
28.966976 -4.4636197 1.5533504 34
118.5823 -18.272749 2.084656 -1
0.1 0.1 0.1 -1
0.1 0.1 0.1 -1
1.8615677 -0.29284537 -0.36770514 49
1.8534898 -0.2915746 -0.2992658 9
1.8334097 -0.28841579 -0.22874762 24
1.8697536 -0.29413307 -0.16585359 30
2.7324777 -0.42984921 -0.14729278 21
40.624027 -6.3906126 -0.72477955 50
23.104286 -3.634562 6.2534781 128
24.257786 -3.8160203 5.6601949 127
24.039499 -3.7816813 4.727097 56
25.798763 -4.0584331 4.126328 52
24.582058 -3.8670316 3.0452321 60
26.708536 -4.2015505 2.3623397 14
118.37605 -18.621874 6.351007 -1
40.70322 -6.4030704 0.71590561 17
0.1 0.1 0.1 -1
0.1 0.1 0.1 -1
1.8509477 -0.29713652 -0.36579001 21
1.833064 -0.29426557 -0.29611564 83
1.8128957 -0.29102793 -0.22630112 28
1.8294767 -0.29368973 -0.16236193 19
3.1945157 -0.51282233 -0.17228471 30
40.613625 -6.5197897 -0.72495574 18
23.092754 -3.707128 6.2534781 146
24.274542 -3.896843 5.6669335 123
24.066271 -3.8634086 4.7347245 44
25.707865 -4.1269374 4.1138425 49
24.579588 -3.9458125 3.0464468 26
26.665697 -4.2807002 2.3597283 83
118.31697 -18.99367 6.351007 -1
40.682903 -6.5309119 0.71590561 130
0.1 0.1 0.1 -1
0.1 0.1 0.1 -1
1.859691 -0.30453607 -0.36770514 61
1.8126396 -0.29683113 -0.29296547 9
1.8119724 -0.29672185 -0.22630112 24
1.828545 -0.29943573 -0.16236193 18
3.2618711 -0.53415191 -0.1760069 1
40.612675 -6.6505804 -0.72530818 29
114.40394 -18.734364 30.996174 -1
24.23333 -3.9683602 5.6601949 136
24.102451 -3.9469278 4.7442584 44
25.558306 -4.1853333 4.0919938 59
24.65523 -4.0374489 3.057379 26
117.97322 -19.318855 10.445127 -1
38.226482 -6.2598267 2.052963 69
40.681923 -6.6619201 0.71625304 159
0.1 0.1 0.1 -1
0.1 0.1 0.1 -1
1.8103209 -0.30229422 -0.35812947 39
1.8116982 -0.30252424 -0.29296547 87
1.8208206 -0.30404752 -0.22752437 26
1.8275952 -0.30517879 -0.16236193 37
118.19373 -19.736437 -6.3809147 -1
40.60144 -6.7797828 -0.72548443 3
25.308252 -4.226068 6.8604865 165
23.942013 -3.9979281 5.595058 127
116.18938 -19.401745 22.882277 -1
25.535288 -4.263979 4.0904331 55
24.485777 -4.088728 3.0379438 31
117.91195 -19.689384 10.445127 -1
28.100931 -4.6924 1.5099519 128
118.34332 -19.761415 2.084656 -1
0.1 0.1 0.1 -1
0.1 0.1 0.1 -1
1.7029291 -0.28986356 -0.33706304 55
1.762063 -0.29992902 -0.28509006 38
1.7807198 -0.30310467 -0.22263137 40
1.8069863 -0.30757561 -0.1606161 21
3.2879834 -0.55966306 -0.17760213 14
40.61937 -6.9140134 -0.72618926 10
25.294851 -4.3055553 6.8604865 197
24.035006 -4.0911107 5.6197653 140
25.751354 -4.3832583 5.0741448 28
26.232597 -4.4651732 4.2043595 39
24.648945 -4.1956124 3.0598085 36
117.84951 -20.059717 10.445127 -1
28.115583 -4.7856855 1.5115397 1
39.870438 -6.7865338 0.70270282 78
0.1 0.1 0.1 -1
0.1 0.1 0.1 -1
1.6150243 -0.27983409 -0.31982687 37
1.6444031 -0.28492451 -0.26618907 58
1.7015791 -0.29483134 -0.21284539 37
1.7766191 -0.30783349 -0.15799737 49
3.2863083 -0.56941622 -0.17760213 13
40.608528 -7.0362096 -0.72636551 14
114.22575 -19.791811 30.996174 -1
23.849936 -4.1324606 5.5793352 163
25.747908 -4.4613209 5.0760517 57
116.78946 -20.236023 18.727659 -1
25.223202 -4.3704057 3.13269 40
117.78947 -20.409296 10.445127 -1
28.120939 -4.8724947 1.5125982 73
118.22039 -20.483961 2.084656 -1
0.1 0.1 0.1 -1
0.1 0.1 0.1 -1
1.5851896 -0.27951169 -0.31408146 65
1.5851995 -0.27951345 -0.25673857 31
1.6225039 -0.28609121 -0.20305939 47
1.7462665 -0.3079139 -0.15537862 39
3.2846043 -0.57916439 -0.17760213 14
40.607166 -7.1601391 -0.72671795 13
114.16652 -20.130638 30.996174 -1
23.866358 -4.2082829 5.5860734 226
116.00852 -20.455433 22.882277 -1
25.164806 -4.4372344 4.0373716 38
25.288324 -4.4590139 3.1424074 34
28.951376 -5.1049085 2.5686309 22
38.01931 -6.7038298 2.0460827 141
118.1591 -20.834637 2.084656 -1
0.1 0.1 0.1 -1
0.1 0.1 0.1 -1
1.5552249 -0.27982911 -0.30833608 38
