# .PCD v0.7 - Point Cloud Data file format
VERSION 0.7
FIELDS x y z intensity
SIZE 4 4 4 4
TYPE F F F F
COUNT 1 1 1 1
WIDTH 1374
HEIGHT 1
VIEWPOINT 0 0 0 1 0 0 0
POINTS 1374
DATA ascii
-1.805886 6.8446774 -0.12476147 2
-4.2217054 16.001127 4.4247041 206
-2.4858987 9.4220648 2.2461092 115
-2.5067775 9.5011997 1.9087632 145
-2.507225 9.5028954 1.5528351 145
-2.4916773 9.4439669 1.1952566 1
-30.496801 115.58912 10.445127 -1
-2.481272 9.4045286 0.51549006 6
-1.8237488 6.9123812 0.12421075 2
-1.0468864 4.0190587 -1.114089 20
-1.0412655 3.9974799 -0.95578247 26
-1.2295958 4.7204909 -0.95182008 7
-1.2595501 4.8354874 -0.79699212 7
-1.258387 4.8310223 -0.6152944 8
-1.3509566 5.1864018 -0.46962753 8
-1.462451 5.6144361 -0.30894262 5
-1.784374 6.850317 -0.12476147 11
-4.1665454 15.995614 4.419538 206
-2.4513736 9.4109678 2.241617 121
-2.4447484 9.3855343 1.8839741 70
-2.4449909 9.3864651 1.5325469 1
-2.4369757 9.3556938 1.1831098 4
-2.4257481 9.3125906 0.84083277 1
-2.4441631 9.3832865 0.51390231 4
-1.8045442 6.927752 0.12438448 2
-1.034255 4.0223279 -1.114089 23
-1.0311282 4.0101671 -0.95803666 23
-1.2220924 4.7528472 -0.95756543 11
-1.2394344 4.8202925 -0.79384196 7
-1.2432038 4.8349514 -0.6152944 8
-1.3346564 5.1906204 -0.46962753 7
-1.4448056 5.6190028 -0.30894262 5
-1.7528847 6.8171554 -0.1240566 22
-2.3985531 9.328229 2.5752654 151
-2.4193695 9.4091854 2.2393708 115
-2.3639147 9.1935158 1.8439301 1
-2.3810537 9.2601719 1.510698 1
-2.4051001 9.3536901 1.181895 5
-2.408884 9.3684063 0.84518492 7
-2.4146726 9.3909187 0.51390231 4
-1.7827712 6.9333868 0.12438448 3
-1.0216135 4.0255575 -1.114089 26
-1.0329039 4.0700464 -0.97156191 31
-1.2192265 4.8042297 -0.96714109 10
-1.226714 4.833734 -0.79541701 7
-1.2304496 4.8484535 -0.61651766 8
-1.3183429 5.194788 -0.46962753 8
-1.4246895 5.6138349 -0.30841088 6
-29.513512 116.2948 -2.1146011 -1
-2.324085 9.1578054 2.5261881 1
-2.3490489 9.2561731 2.2011869 106
-2.3543384 9.2770157 1.859185 3
-2.3640988 9.3154755 1.5185012 12
-2.3683779 9.3323364 1.1782509 4
-2.3745394 9.356616 0.84344405 4
-2.3802454 9.3790998 0.51284379 4
-1.7560617 6.9195709 0.12403703 4
-1.0089618 4.0287471 -1.114089 20
-1.0343136 4.1299758 -0.98508716 24
-1.2160496 4.8556409 -0.97671676 13
-1.2235177 4.8854609 -0.80329245 14
-1.2128005 4.8426676 -0.6152944 8
-1.3044367 5.2085676 -0.47050044 8
-1.4070461 5.6182828 -0.30841088 5
-1.5351288 6.1297126 -0.11136899 2
-2.2999973 9.1838045 2.5313542 11
-2.3199582 9.2635078 2.2011869 17
-28.617626 114.26913 22.882277 -1
-2.3300226 9.3036938 1.5153798 2
-2.3366363 9.3301029 1.1770363 3
-2.3427129 9.3543663 0.84257364 3
-2.3483427 9.3768454 0.51231456 4
-1.7343146 6.9250536 0.12403703 3
-0.9963001 4.0318966 -1.114089 24
-1.0283452 4.1615791 -0.99184972 22
-1.2172705 4.9261355 -0.99012268 9
-1.2152704 4.9180408 -0.80801767 11
-1.1999617 4.8560886 -0.61651766 8
-1.2856773 5.2029686 -0.46962753 8
-1.3893888 5.6226754 -0.30841088 5
-1.5158643 6.1345053 -0.11136899 12
-2.2734518 9.2003632 2.5339372 12
-2.288507 9.2612906 2.1989408 6
-2.2936482 9.2820959 1.8572781 3
-2.2984133 9.3013792 1.5138192 7
-2.3049324 9.3277617 1.1758215 3
-2.3109241 9.3520088 0.84170324 3
-2.3188727 9.3841763 0.51231456 3
-1.7125503 6.9304681 0.12403703 3
-0.98591614 4.0443907 -1.1166799 23
-1.0244958 4.202651 -1.0008665 18
-1.2110869 4.9680777 -0.99778318 8
-1.2068304 4.9506168 -0.81274295 6
-1.1941023 4.8984046 -0.62141067 13
-1.2693254 5.2069821 -0.46962753 8
-1.3693528 5.617311 -0.30787915 5
-1.4942167 6.1295233 -0.11119278 4
-2.2422488 9.1980743 2.5313542 11
-2.2570927 9.2589664 2.1966949 8
-27.899094 114.44668 22.882277 -1
-2.2668414 9.2989569 1.5122585 1
-2.2732663 9.3253126 1.1746069 3
-2.2815325 9.3592224 0.84170324 3
-2.2846501 9.3720112 0.51125604 3
-1.6907692 6.9358139 0.12403703 3
-0.97094744 4.0380774 -1.114089 20
-1.0226762 4.253212 -1.0121375 20
-1.2000624 4.9909439 -1.0016135 8
-1.1981976 4.9831886 -0.81746817 13
-1.3388077 5.5679727 -0.70581484 6
-1.2529609 5.2109442 -0.46962753 11
-1.3516988 5.6215854 -0.30787915 6
-1.4749528 6.1341872 -0.11119278 7
-2.2110827 9.1956797 2.5287712 10
-2.2257156 9.2565374 2.1944487 10
-2.2306924 9.277235 1.8534644 3
-2.2376168 9.3060331 1.5122585 6
-2.2416382 9.3227577 1.1733922 3
-2.2474604 9.3469715 0.83996236 3
-2.2551959 9.3791418 0.51125604 3
-1.6689714 6.9410915 0.12403703 3
-0.95825672 4.0411077 -1.114089 21
-1.0183009 4.2943225 -1.0211544 16
-1.184377 4.9946895 -1.0016135 8
-1.1870935 5.0061455 -0.82061833 11
-1.3281788 5.6011224 -0.70948458 16
-1.2365842 5.2148547 -0.46962753 3
-1.3340315 5.6258039 -0.30787915 5
-1.4533676 6.1290617 -0.11101656 6
-2.1799536 9.193181 2.5261881 11
-2.1943762 9.2540026 2.1922026 9
-27.179457 114.61971 22.882277 -1
-2.2060909 9.3034058 1.510698 1
-2.2123389 9.3297539 1.1733922 3
-2.2180851 9.3539867 0.83996236 3
-2.2257192 9.3861809 0.51125604 3
-1.6448501 6.9365716 0.12386331 5
-0.94555646 4.0440979 -1.114089 21
-1.0158955 4.3449345 -1.0324254 28
-1.1686798 4.9983854 -1.0016135 9
-1.1826019 5.0579295 -0.82849377 9
-1.3037969 5.5762749 -0.70581484 7
-1.2201952 5.2187138 -0.46962753 8
-1.3163509 5.6299672 -0.30787915 5
-1.4318291 6.1238613 -0.11084034 6
-2.1510618 9.1999836 2.5261881 10
-2.1630745 9.2513618 2.1899564 10
-2.1678882 9.2719498 1.8496506 3
-2.1746037 9.3006725 1.5091373 6
-2.178498 9.3173275 1.1709628 3
-2.1864197 9.3512077 0.83909196 3
-2.1916738 9.3736792 0.51019758 4
-1.6184975 6.9222331 0.12351587 6
-0.93430835 4.0566235 -1.1166799 22
-1.0036682 4.3577733 -1.0346797 20
-1.1565039 5.0213623 -1.0054437 11
-1.1746882 5.1003165 -0.8347941 6
-1.280843 5.561224 -0.70336837 8
-1.2006466 5.2130237 -0.46875462 6
-1.2954328 5.6245704 -0.30734739 6
-1.4115137 6.1285758 -0.11084034 6
-2.1162052 9.1882381 2.5210221 10
-2.1323841 9.2584839 2.1899564 10
-26.438713 114.79284 22.882277 -1
-2.1415329 9.2982073 1.5075766 1
-2.1453609 9.3148279 1.1697481 3
-2.1553979 9.358407 0.83909196 3
-2.1583362 9.3711643 0.50966829 3
-1.5932895 6.9178185 0.12334215 5
-0.92155951 4.0595388 -1.1166799 21
-0.99428654 4.3799067 -1.039188 21
-1.1407231 5.024971 -1.0054437 10
-1.1608455 5.1136117 -0.83636916 10
-1.2611685 5.555542 -0.7021451 7
-1.186469 5.2264848 -0.46962753 7
-1.279967 5.6383505 -0.30787915 5
-1.3900398 6.12323 -0.11066413 6
-2.0851905 9.18542 2.5184393 9
-2.10113 9.2556353 2.1877103 9
-2.1057947 9.2761831 1.8477437 3
-2.1101243 9.2952566 1.506016 6
-2.116087 9.3215218 1.1697481 3
-2.1237817 9.3554173 0.83822149 3
-2.1288853 9.3778992 0.50966829 3
-1.5693352 6.9130397 0.12316843 5
-0.90740031 4.0528297 -1.114089 21
-0.98980111 4.4208665 -1.0482049 25
-1.1236644 5.0187559 -1.0035286 11
-1.1672437 5.2133994 -0.85212004 13
-1.2446793 5.5592594 -0.7021451 8
-1.1883684 5.3077512 -0.47661084 9
-1.2588686 5.6226339 -0.30681565 5
-1.3718657 6.127327 -0.11066413 5
-2.0579276 9.1915665 2.5184393 10
-2.0715296 9.2523193 2.1854641 10
-25.736996 114.9522 22.882277 -1
-2.0846937 9.3111153 1.5075766 1
-2.0862515 9.3180733 1.1685334 3
-2.0960143 9.3616781 0.83822149 2
-2.0988693 9.3744297 0.50913906 3
-1.5466325 6.9079084 0.12299471 6
-0.89537138 4.0555043 -1.114089 20
-0.97878021 4.4332972 -1.050459 27
-1.1108844 5.0316515 -1.0054437 10
-1.1475122 5.1975536 -0.84896988 11
-1.2281792 5.5629282 -0.7021451 7
-1.262816 5.7198119 -0.51327318 3
-1.2421803 5.6263447 -0.30681565 5
-1.3536797 6.1313705 -0.11066413 5
-2.028564 9.188199 2.5158563 9
-2.0440683 9.2584248 2.1854641 10
-2.0464792 9.2693443 1.8439301 3
-2.052799 9.2979689 1.5044553 4
-2.0585952 9.3242216 1.1685334 4
-2.0639331 9.3484001 0.83648068 3
-2.0710456 9.3806152 0.50913906 3
-1.5218184 6.8929405 0.12264726 5
-0.88530821 4.0774822 -1.1192708 21
-0.9653663 4.4462075 -1.0527133 24
-1.0933139 5.0354986 -1.0054437 10
-1.1314577 5.2111783 -0.85054493 12
-1.2087536 5.5671811 -0.7021451 7
-1.2491834 5.7533898 -0.51589197 19
-1.2246519 5.6404047 -0.30734739 5
-1.3301474 6.1262875 -0.11048791 6
-1.994429 9.1857834 2.5132732 9
-2.0076029 9.2464581 2.1809719 9
-2.0182765 9.2956171 1.8477437 6
-2.0182347 9.2954254 1.5028948 2
-2.0239289 9.3216515 1.1673187 4
-2.027061 9.3360767 0.8347398 5
-1.8475963 8.5095119 0.46150652 3
-1.4998698 6.9079814 0.12282099 4
-0.87249404 4.0802436 -1.1192708 21
-0.95139343 4.4492188 -1.0527133 28
-1.0795414 5.0485067 -1.0073589 10
-1.1171457 5.2243638 -0.85212004 12
-1.1912578 5.570951 -0.7021451 7
-1.2311025 5.7572861 -0.51589197 13
-1.2048379 5.634459 -0.30681565 5
-1.3088039 6.1206589 -0.11031169 5
-1.961521 9.1731091 2.5081072 9
-1.9765068 9.2431908 2.178726 9
-1.9870107 9.2923126 1.845837 5
-1.986957 9.2920609 1.5013341 2
-24.906981 116.47821 14.576301 -1
-1.8144056 8.4851198 0.75814217 3
-1.8187656 8.5055094 0.46097726 3
-1.4739789 6.8931041 0.12247355 3
-0.85967129 4.0829644 -1.1192708 19
-0.94142568 4.4712524 -1.0572217 41
-1.0616536 5.0422688 -1.0054437 10
-1.1109004 5.2761641 -0.85999542 6
-1.1696606 5.5552421 -0.69969863 7
-1.2130094 5.7611251 -0.51589197 14
-1.1891882 5.6479878 -0.30734739 5
-1.2875088 6.1149564 -0.11013547 6
-1.9326932 9.1792259 2.5081072 10
-1.9474587 9.2493544 2.178726 9
-24.270351 115.27077 22.882277 -1
-1.7725623 8.4186926 1.359316 3
-1.7792176 8.4503012 1.0567818 2
-1.7856873 8.4810295 0.75727177 3
-1.7920358 8.5111809 0.46097726 3
-1.4523163 6.8977008 0.12247355 4
-0.84684008 4.0856452 -1.1192708 18
-0.92539686 4.4646482 -1.0549674 12
-1.0458076 5.045579 -1.0054437 10
-1.1023364 5.3183069 -0.86629575 33
-1.1522025 5.5588894 -0.69969863 7
-1.1949043 5.7649074 -0.51589197 15
-1.169412 5.6419182 -0.30681565 6
-1.2662625 6.1091805 -0.10995926 5
-23.528482 113.51497 30.996174 -1
-1.736441 8.377593 1.9720838 10
-1.7393141 8.3914547 1.6646856 4
-1.7420959 8.4048758 1.3561947 2
-1.7526615 8.4558496 1.0567818 2
-1.7570127 8.4768429 0.75640136 3
-1.7612349 8.4972124 0.45991877 3
-1.434698 6.9218102 0.12282099 4
-0.83400047 4.0882854 -1.1192708 19
-0.90941888 4.4579873 -1.0527133 29
-1.0279895 5.0392227 -1.0035286 8
-1.0915446 5.3507714 -0.87102103 23
-1.1327493 5.5527573 -0.69847536 7
-1.1747962 5.758872 -0.51501906 14
-1.1756334 5.7629762 -0.31319657 4
-1.2470638 6.1131287 -0.10995926 7
-1.6953996 8.3108788 2.2678869 7
-1.7081658 8.3734589 1.9698377 12
-1.7129431 8.3968773 1.6646856 3
-1.7176571 8.4199858 1.3577553 4
-1.7241039 8.4515886 1.055567 2
-1.7283821 8.4725599 0.75553089 3
-1.7345314 8.5027037 0.45991877 3
-1.4129454 6.9262834 0.12282099 3
-0.82495433 4.1098247 -1.1244526 17
-0.89924395 4.4799266 -1.0572217 12
-1.0121533 5.0424275 -1.0035286 10
-1.0708424 5.3348098 -0.86787087 15
-1.1113927 5.5368266 -0.69602883 7
-1.1508169 5.7332335 -0.51240027 13
-1.1653837 5.8058033 -0.31532353 4
-1.2278527 6.1170163 -0.10995926 4
-1.6730844 8.3351078 2.2730527 13
-1.6799335 8.3692293 1.9675916 3
-1.6846231 8.3925924 1.6627787 3
-1.6873087 8.4059715 1.354634 4
-1.6955906 8.4472313 1.0543524 2
-1.6997957 8.4681807 0.75466049 3
-1.7058456 8.4983206 0.45938951 3
-1.3951143 6.950294 0.12316843 3
-0.80829674 4.0934448 -1.1192708 20
-0.88327807 4.4731717 -1.0549674 22
-0.99440575 5.0359535 -1.0016135 9
-1.0540774 5.3381476 -0.86787087 11
-1.0901475 5.5208173 -0.69358236 7
-1.1347296 5.7465935 -0.51327318 12
-1.149073 5.8192325 -0.31585529 4
-1.2086295 6.1208434 -0.10995926 3
-1.6450192 8.3308449 2.2704697 15
-1.6536326 8.3744659 1.9675916 4
-1.6563472 8.3882132 1.6608719 3
-1.6589788 8.4015408 1.3530735 4
-1.6671216 8.4427786 1.0531377 3
-1.6731838 8.4734793 0.75466049 2
-1.679139 8.5036373 0.45938951 3
-1.3732725 6.9546423 0.12316843 3
-0.76597238 3.9442616 -1.0778162 80
-0.87293547 4.4950523 -1.0594759 31
-0.97857994 5.0390525 -1.0016135 8
-1.0410671 5.3608208 -0.87102103 10
-1.0633377 5.4755001 -0.68746608 6
-1.1090742 5.7110138 -0.50978154 9
-1.1269783 5.8032084 -0.3147918 3
-1.1893944 6.1246104 -0.10995926 3
-1.618839 8.3359718 2.2704697 14
-1.6254576 8.3700542 1.9653455 4
-1.6299866 8.3933754 1.6608719 3
-1.6325765 8.4067106 1.3530735 3
-1.6386975 8.4382305 1.051923 2
-1.6446563 8.468914 0.75379008 2
-1.6505121 8.4990683 0.45886025 3
-1.3533232 6.9687376 0.12334215 4
-0.71191323 3.7284443 -1.0182256 45
-0.85698235 4.4882026 -1.0572217 58
-0.95906287 5.0228205 -0.99778318 11
-1.0279247 5.3834648 -0.8741712 11
-1.0442692 5.4690652 -0.68624288 6
-1.0836536 5.6753297 -0.5062899 10
-1.1106143 5.8165288 -0.31532353 3
-1.1682723 6.1184955 -0.10978305 3
-1.5908309 8.3315277 2.2678869 13
-1.5973268 8.3655481 1.9630994 4
-1.601769 8.3888121 1.658965 3
-1.6043054 8.4020958 1.3515128 3
-1.6121799 8.4433365 1.051923 2
-1.6180423 8.4740391 0.75379008 3
-1.6219305 8.4944029 0.45833099 3
-1.3314236 6.9729548 0.12334215 4
-0.67525309 3.5977635 -0.98195285 51
-0.84467518 4.5004482 -1.0594759 40
-0.94327849 5.0258088 -0.99778318 12
-1.0128286 5.3963733 -0.87574625 11
-1.0344058 5.5113368 -0.69113588 10
-1.0621434 5.6591244 -0.50454408 3
-1.0923357 5.8199892 -0.31532353 3
-1.150889 6.1319623 -0.10995926 5
-1.5610847 8.3174944 2.2627208 12
-1.5710378 8.3705244 1.9630994 4
-1.5735961 8.3841553 1.6570581 3
-1.5779016 8.407095 1.3515128 3
-1.5838155 8.4386044 1.0507083 2
-1.5877371 8.4594984 0.75204921 3
-1.5952365 8.4994564 0.45833099 3
-1.3095108 6.9771032 0.12334215 4
-0.63416582 3.4383955 -0.93790746 55
-0.82523119 4.4743366 -1.0527133 127
-0.92748481 5.0287476 -0.99778318 10
-0.99945271 5.4189515 -0.87889642 13
-1.0188864 5.5243196 -0.69235909 6
-1.0461664 5.6722298 -0.50541699 11
-1.0740464 5.8233919 -0.31532353 3
-1.2386153 6.7156715 -0.12035605 2
-1.5349469 8.3223572 2.2627208 12
-1.5429659 8.3658361 1.9608532 4
-1.5472487 8.3890572 1.6570581 3
-1.5496906 8.402297 1.3499522 3
-1.5572971 8.4435387 1.0507083 3
-1.5611529 8.4644451 0.75204921 2
-1.5667157 8.4946051 0.45780176 3
-1.2839582 6.9615173 0.12299471 3
0.1 0.1 0.1 -1
-0.75906116 4.1893115 -0.98508716 112
-0.91168201 5.0316362 -0.99778318 8
-0.98594493 5.4414988 -0.88204658 13
-1.0068347 5.5567913 -0.69602883 11
-1.0301175 5.6852903 -0.5062899 6
-1.0557463 5.8267374 -0.31532353 3
-1.2228591 6.7490444 -0.1208847 5
-1.5070715 8.3176327 2.2601378 7
-1.514939 8.3610535 1.9586072 11
-1.519136 8.3842173 1.6551514 3
-1.5215254 8.3974047 1.3483915 3
-1.5289936 8.4386225 1.0494937 3
-1.5345535 8.4693069 0.75204921 3
-1.5400214 8.499485 0.45780176 3
-1.2567339 6.9360018 0.12247355 3
-0.47041082 2.6435435 -0.72027147 1
-0.69981122 3.932693 -0.9242236 93
-0.90102875 5.0634651 -1.0035286 9
-0.97403532 5.4737363 -0.88677186 7
-0.99458903 5.589241 -0.69969863 8
-1.0174874 5.7179217 -0.50890863 9
-1.0374359 5.8300257 -0.31532353 3
-1.1981471 6.7331653 -0.12053227 5
-1.479241 8.3128147 2.2575548 9
-1.4886645 8.3657713 1.9586072 6
-1.491069 8.3792839 1.6532445 3
-1.4951367 8.4021425 1.3483915 3
-1.5024754 8.4433842 1.0494937 3
-1.5061935 8.4642782 0.7511788 2
-1.509813 8.4846182 0.45674324 3
-1.2331859 6.9300718 0.12229982 3
-0.46542805 2.6640372 -0.72545326 38
-0.66230214 3.7909136 -0.89041054 9
-0.88849527 5.0856075 -1.0073589 20
-0.96023339 5.4962254 -0.88992202 6
-0.9821493 5.6216683 -0.70336837 6
-1.0029479 5.7407165 -0.51065445 5
-1.0208338 5.8430929 -0.31585529 4
-1.1683846 6.6876497 -0.11965118 4
-1.4531183 8.317421 2.2575548 8
-1.4623754 8.3704071 1.9586072 7
-1.4647373 8.3839264 1.6532445 3
-1.4687332 8.4067984 1.3483915 3
-1.4742341 8.4382849 1.0482789 3
-1.4778804 8.4591551 0.75030833 2
-1.4848689 8.499157 0.4572725 3
-1.2182914 6.973309 0.12299471 3
-0.45052707 2.6274078 -0.71508968 16
-0.62733757 3.658541 -0.85885173 30
-0.7895754 4.6046882 -0.91160232 32
-0.94629967 5.518681 -0.89307219 11
-0.96951556 5.6540728 -0.7070381 6
-0.98659164 5.7536578 -0.51152736 9
-0.99740922 5.8167443 -0.31426007 4
-1.1422995 6.6617236 -0.11912253 5
-1.4237158 8.3029022 2.2523887 7
-1.4344249 8.3653555 1.9563611 7
-1.4383913 8.3884869 1.6532445 3
-1.4406459 8.4016361 1.3468308 3
-1.4477172 8.442874 1.0482789 2
-1.4512979 8.4637566 0.75030833 2
-1.4547853 8.4840946 0.45621401 3
-1.1997578 6.9968114 0.12334215 4
-0.44227064 2.6288102 -0.71508968 25
0.1 0.1 0.1 -1
-0.72788268 4.3264585 -0.85606349 28
-0.9338727 5.5508413 -0.89779741 49
-0.95010138 5.6473031 -0.70581484 5
-0.96685839 5.7469049 -0.51065445 18
-0.99072766 5.8887815 -0.31798226 6
-1.118048 6.6455598 -0.1187701 4
-1.3976245 8.3073339 2.2523887 7
-1.4081373 8.3698206 1.9563611 6
-1.4104024 8.3832836 1.6513376 3
-1.4142444 8.4061203 1.3468308 3
-1.421186 8.447381 1.0482789 2
-1.4247011 8.4682741 0.75030833 2
-1.4281247 8.4886236 0.45621401 3
-19.905985 118.31908 2.084656 -1
-0.43355075 2.6302624 -0.71508968 22
-0.42940259 2.6050966 -0.61088926 1
-0.67362493 4.0867429 -0.80818522 22
-0.9170664 5.5636516 -0.89937252 50
-0.92975485 5.6406298 -0.70459157 5
-0.94293517 5.720592 -0.50803572 9
-0.97769058 5.9314461 -0.32010922 7
-1.091126 6.6196346 -0.11824145 4
-1.3684975 8.3023901 2.2498057 8
-1.3787894 8.36483 1.9541149 8
-1.3825946 8.3879147 1.6513376 3
-1.3847544 8.4010181 1.3452703 3
-1.3915514 8.4422531 1.0470642 2
-1.393371 8.4532928 0.74856746 3
-1.3999676 8.4933128 0.45621401 3
-1.404973 8.5236797 0.15009524 7
-0.42374453 2.6220767 -0.71249878 25
-0.42743355 2.6449039 -0.61990607 26
-0.63416356 3.9241226 -0.77562803 27
-0.89800769 5.5567565 -0.89779741 44
-0.91044635 5.6337252 -0.70336837 6
-0.92654806 5.7333603 -0.50890863 7
-0.96542406 5.9739199 -0.32223621 6
-1.0703244 6.6230297 -0.11824145 4
-1.3424081 8.3066492 2.2498057 8
-1.3525038 8.3691196 1.9541149 7
-1.3546704 8.3825264 1.6494308 3
-1.358355 8.4053268 1.3452703 3
-1.3650224 8.4465837 1.0470642 2
-1.3683968 8.4674635 0.74943793 3
-1.371685 8.4878111 0.45568475 3
-1.3765931 8.5181818 0.14992151 5
-0.41399401 2.6138554 -0.70990783 16
-0.41759816 2.636611 -0.61765188 29
-0.6110847 3.858237 -0.76222211 105
0.1 0.1 0.1 -1
-0.89274305 5.6365576 -0.70336837 5
-0.90697324 5.7264037 -0.50803572 7
-0.95133805 6.0065122 -0.32383144 6
-1.0588969 6.6856117 -0.11929875 6
-1.3163054 8.3108253 2.2498057 8
-1.3231561 8.3540783 1.9496228 7
-1.3283292 8.3867407 1.6494308 3
-1.3303971 8.3997965 1.3437096 3
-1.3369272 8.4410267 1.0458496 2
-1.3402302 8.4618807 0.74856746 3
-1.345013 8.4920778 0.45568475 3
-1.3482616 8.5125885 0.14974779 4
-0.40578032 2.6151431 -0.70990783 25
-0.40184376 2.5897729 -0.60638088 47
-0.39579564 2.5507946 -0.50367945 1
-0.40579718 2.6152518 -0.4221223 32
-0.87198728 5.6197195 -0.70092183 5
-0.93480241 6.0245457 -0.53422314 13
-0.94165021 6.0686779 -0.3270219 6
-1.0440205 6.7284265 -0.12000362 5
-1.2901897 8.3149195 2.2498057 8
-1.2969044 8.3581944 1.9496228 7
-1.3004699 8.3811722 1.6475239 3
-1.3024874 8.3941746 1.342149 3
-1.3088804 8.4353762 1.0446348 2
-1.3136399 8.4660492 0.74856746 3
-1.3183278 8.4962616 0.45568475 3
-1.3199788 8.5069017 0.14957407 3
-0.39756262 2.616405 -0.70990783 18
-0.38492423 2.5332303 -0.59285563 1
-0.3892546 2.561729 -0.50559455 38
-0.40054613 2.63604 -0.42527246 41
-0.8528372 5.6126189 -0.69969863 6
-0.92784333 6.1062431 -0.54120642 4
-0.93008095 6.1209688 -0.32968059 6
-1.0228775 6.7316728 -0.12000362 6
-1.2626101 8.3093805 2.2472227 8
-1.2691762 8.3525934 1.9473766 7
-1.2726586 8.3755112 1.645617 3
-1.274626 8.3884592 1.3405883 3
-1.2838646 8.4492598 1.0458496 3
-1.2855401 8.4602861 0.74769706 3
-1.2901294 8.490489 0.45515549 3
-1.2932471 8.5110073 0.14957407 3
-0.38792002 2.6080875 -0.70731694 22
-0.38556391 2.5922468 -0.60638088 76
-0.38120478 2.5629392 -0.50559455 12
-0.39226282 2.6372852 -0.42527246 13
-0.83520043 5.6152706 -0.69969863 5
-0.9189145 6.1781015 -0.54731685 13
-0.92113054 6.1930008 -0.33340281 6
-1.0017242 6.7348533 -0.12000362 6
-1.2350779 8.303751 2.2446396 8
-1.2429296 8.3565397 1.9473766 7
-1.2463398 8.379468 1.645617 3
-1.2482667 8.3924227 1.3405883 3
-1.2558539 8.4434338 1.0446348 3
-1.258955 8.464283 0.74769706 3
-1.2634494 8.4945002 0.45515549 3
-1.2650317 8.5051384 0.14940035 3
-0.37972459 2.6092935 -0.70731694 25
-0.37180606 2.5548809 -0.59736407 12
0.1 0.1 0.1 -1
-0.38397563 2.6385045 -0.42527246 23
-0.81469691 5.5982237 -0.69725209 10
-0.90667397 6.230248 -0.5516814 4
-0.91173667 6.2650366 -0.337125 6
-0.97912127 6.7280726 -0.1198274 7
-1.2075936 8.2980299 2.2420566 8
-1.2152673 8.3507605 1.9451305 7
-1.2185951 8.3736277 1.6437101 3
-1.221895 8.3963022 1.3405883 3
-1.229322 8.4473372 1.0446348 3
-1.2323575 8.4681959 0.74769706 3
-1.2353189 8.4885454 0.45462626 3
-1.2383058 8.5090704 0.14940035 3
-0.36880359 2.5913491 -0.70213515 21
-0.3651506 2.5656817 -0.59961826 48
-0.36232808 2.5458498 -0.5017643 10
-0.37568462 2.6396978 -0.42527246 11
0.1 0.1 0.1 -1
-0.89692205 6.3021026 -0.55779177 12
-0.89767808 6.307415 -0.33925197 5
-0.95234442 6.6915207 -0.11912253 6
-1.1815187 8.3017826 2.2420566 8
-1.1890266 8.354537 1.9451305 7
-1.1922827 8.3774147 1.6437101 4
-1.1955112 8.4000998 1.3405883 3
-1.2013793 8.4413309 1.0434202 2
-1.2043442 8.462163 0.74682665 2
-1.2072382 8.4824982 0.454097 3
-1.2101589 8.5030203 0.14922662 3
-0.35932997 2.5829287 -0.69954425 23
-0.35708848 2.5668163 -0.59961826 15
0.1 0.1 0.1 -1
-0.37011135 2.6604269 -0.42842263 15
-0.57437313 4.1286974 -0.51376468 44
-16.471718 118.40168 -10.474963 -1
-16.511442 118.68722 -6.3809147 -1
-0.93269545 6.7043829 -0.11929875 6
-1.155432 8.3054533 2.2420566 8
-1.1614316 8.3485794 1.9428844 7
-1.1659584 8.3811188 1.6437101 4
-1.1691157 8.4038143 1.3405883 3
-1.1748542 8.4450636 1.0434202 3
-1.1763809 8.4560375 0.74595618 2
-1.1819597 8.4961395 0.45462626 3
-1.18344 8.5067797 0.14922662 3
-0.35121369 2.5840447 -0.69954425 24
-0.35033494 2.5775793 -0.60187244 49
-0.34632498 2.5480762 -0.5017643 14
-0.35776165 2.632221 -0.42369738 9
-0.55738962 4.1009779 -0.51009494 37
-0.55946344 4.1162362 -0.36400497 123
-0.56619215 4.1657424 -0.22386377 28
-0.93048042 6.8459826 -0.12176578 29
-1.1280329 8.2994699 2.2394736 7
-1.135198 8.3521872 1.9428844 7
-1.1383005 8.3750134 1.6418033 2
-1.140048 8.3878708 1.3374671 3
-1.1483175 8.4487123 1.0434202 3
-1.1511514 8.4695635 0.74682665 2
-1.1552626 8.4998112 0.45462626 8
-1.1594025 8.5302706 0.14957407 11
-0.34055254 2.5659862 -0.6943624 23
-0.33967197 2.5593512 -0.59736407 17
-0.33831826 2.5491514 -0.5017643 19
-0.35208896 2.6529105 -0.42684755 37
-0.54189175 4.0830317 -0.50764847 52
-0.54390794 4.0982232 -0.36225915 18
-0.55835748 4.2070971 -0.22599073 14
-0.92870015 6.9975452 -0.12440903 23
-1.1006829 8.293396 2.2368906 7
-1.1076713 8.3460522 1.9406383 7
-1.1119841 8.3785486 1.6418033 3
-1.1136912 8.3914108 1.3374671 3
-1.1191576 8.4325991 1.0409908 2
-1.1258485 8.4830132 0.74769706 6
-1.1456333 8.6320877 0.46150652 13
-1.1470681 8.6428976 0.15148501 13
-0.33124894 2.5574648 -0.69177151 20
-0.33413273 2.5797296 -0.60187244 41
-0.3290475 2.5404682 -0.49984917 18
-0.34121597 2.6344168 -0.42369738 10
-0.52523732 4.0551858 -0.50397873 37
-0.52207321 4.0307565 -0.35614875 71
-0.54642045 4.2187333 -0.22652248 13
-0.92854518 7.1689939 -0.12740472 7
-1.074623 8.296813 2.2368906 8
-1.0826976 8.3591547 1.9428844 6
-1.0843958 8.3722649 1.6398965 3
-1.0873233 8.3948679 1.3374671 6
-1.0977603 8.4754486 1.0458496 8
-1.1171075 8.6248217 0.75988305 11
-1.1351843 8.7643862 0.46838677 11
-1.1391745 8.7951937 0.15409082 10
-0.32442334 2.5680752 -0.6943624 19
-0.32480556 2.5711007 -0.59961826 18
-0.31983465 2.5317519 -0.49793404 20
-0.3354134 2.6550705 -0.42684755 46
-0.5100072 4.0371227 -0.5015322 36
-0.50940764 4.0323768 -0.35614875 28
-0.53066111 4.2006149 -0.22545899 11
-0.91103113 7.2115541 -0.12810959 20
-1.0485525 8.300148 2.2368906 7
-1.05521 8.3528471 1.9406383 9
-1.0630095 8.414587 1.6475239 8
-1.0708486 8.4766388 1.3499522 14
-1.0897893 8.6265707 1.0640699 12
-1.108735 8.7765408 0.77293944 8
-1.1251667 8.9066105 0.47579628 9
-1.1278288 8.9276848 0.1563492 7
-0.31517348 2.5594957 -0.69177151 25
-0.31791732 2.581778 -0.60187244 29
-0.31067979 2.5230029 -0.49601892 18
-0.32586372 2.6463099 -0.42527246 11
-0.49489573 4.0190039 -0.49908572 30
-0.49551958 4.0240698 -0.35527584 39
-0.51624143 4.1923504 -0.22492725 11
-0.88959289 7.2243037 -0.12828581 19
-1.0224718 8.303401 2.2368906 15
-14.291161 116.05724 26.95331 -1
-1.0545652 8.5640287 1.6761267 15
-1.0635281 8.636816 1.3749224 15
-1.0808793 8.7777243 1.0822903 11
-1.0982025 8.9184036 0.78512543 6
-1.1130459 9.0389462 0.48267654 7
-1.1156619 9.0601902 0.15860759 7
-0.30598074 2.5508833 -0.68918061 28
-0.30980489 2.5827641 -0.60187244 17
-0.30275205 2.5239663 -0.49601892 21
-0.31990069 2.6669304 -0.42842263 45
-0.48108521 4.0106845 -0.49786246 25
-0.47812945 3.9860432 -0.3517842 35
-0.50425756 4.2038665 -0.22545899 12
-1.121721 9.3515015 -0.16599619 16
-1.0170908 8.4792261 2.2833848 38
-1.0293994 8.5818405 1.9922988 10
-1.0463612 8.7232456 1.7066364 20
-1.0528588 8.7774153 1.3967713 3
-1.0710304 8.9289064 1.1005107 7
-1.085603 9.050395 0.79644102 6
-1.1036726 9.2010374 0.49114454 10
-1.1074364 9.2324152 0.16156085 8
-0.29684526 2.5422387 -0.68658972 27
-0.30281928 2.5934014 -0.60412669 44
-0.29595959 2.5346537 -0.49793404 24
-0.30923012 2.6483052 -0.42527246 11
-0.46733186 4.0023179 -0.49663922 33
-0.46675995 3.9974201 -0.35265711 19
-0.48873198 4.1855927 -0.2243955 12
-1.0958158 9.3847723 -0.16652484 7
-1.0083742 8.6359072 2.324713 29
-1.0227762 8.7592487 2.0327287 37
-1.0360286 8.8727446 1.7352393 9
-1.0413165 8.9180307 1.4186202 13
-1.0590907 9.0702524 1.1175164 6
-1.0721849 9.1823931 0.80775654 5
-1.0898173 9.3334007 0.49802479 3
-1.0911821 9.3450899 0.16347177 2
-0.2888571 2.5431588 -0.68658972 22
-0.29357088 2.5846596 -0.60187244 17
-0.28910297 2.5453231 -0.49984917 24
-0.30313766 2.6688876 -0.42842263 56
-0.45251572 3.9840436 -0.49419272 22
-0.45195088 3.9790704 -0.35091126 25
-0.47445318 4.1771855 -0.22386377 12
-1.0663272 9.3881693 -0.16652484 7
-1.0019538 8.8214121 2.3737903 21
-1.0139487 8.9270172 2.0709126 30
-1.0269825 9.04177 1.7676558 10
-1.032245 9.0881023 1.4451511 9
-1.0462734 9.2116108 1.1345221 5
-1.0556993 9.2945986 0.81733125 2
-1.0593632 9.3268566 0.49749553 2
-1.0618184 9.3484716 0.16347177 2
-0.28086615 2.5440536 -0.68658972 21
-0.2886568 2.6146204 -0.60863507 67
-0.28110519 2.5462189 -0.49984917 22
-0.29366797 2.6600113 -0.42684755 13
-0.43999729 3.9854455 -0.49419272 30
-0.43835491 3.9705689 -0.35003835 21
-0.46242365 4.188581 -0.2243955 12
-1.0357311 9.3815346 -0.16634862 8
-0.99119729 8.9781532 2.4151187 23
-1.0051461 9.1044998 2.1113427 16
-1.0158073 9.201067 1.7981656 4
-1.0177796 9.2189322 1.4654394 4
-1.0238645 9.2740479 1.1418102 4
-1.0264944 9.2978697 0.81733125 2
-1.0300568 9.3301382 0.49749553 3
-1.032444 9.3517609 0.16347177 2
-0.27081296 2.5257165 -0.68140793 25
-0.2773253 2.5864532 -0.60187244 12
-0.27310464 2.5470893 -0.49984917 23
-0.28741547 2.6805587 -0.42999771 60
-0.42430016 3.9572031 -0.49052298 36
-0.42587885 3.9719265 -0.35003835 29
-0.45032719 4.1999421 -0.22492725 32
-1.005187 9.3748007 -0.1661724 8
-0.97946566 9.1349115 2.4564469 10
-0.98692727 9.2045021 2.1338036 1
-12.558596 117.12679 22.882277 -1
-0.99302471 9.2613688 1.471682 4
-0.99472415 9.2772188 1.1418102 3
-0.99834126 9.3109541 0.81820166 2
-0.99967569 9.3233995 0.4969663 4
-1.0019937 9.3450174 0.16329806 2
-0.26187733 2.516948 -0.67881697 19
-0.27121481 2.6066923 -0.60638088 49
-0.2661171 2.5576971 -0.5017643 19
-0.27797091 2.6716261 -0.42842263 14
-0.37180936 3.5735238 -0.44281626 76
-12.37103 118.90009 -10.474963 -1
-0.43609706 4.1914039 -0.2243955 17
-0.97469568 9.3679676 -0.16599619 19
-0.95276225 9.1571617 2.4616129 16
-12.101124 116.30598 26.95331 -1
-0.96000737 9.2267952 1.8019793 3
-0.96290219 9.2546186 1.4701213 11
-0.96660125 9.2901707 1.1430249 2
-0.96702331 9.2942266 0.81646085 2
-0.97038049 9.3264942 0.4969663 4
-0.9726305 9.3481188 0.16329806 2
-0.25493819 2.5273681 -0.68140793 19
-0.26204655 2.5978382 -0.60412669 13
-0.26005062 2.5780511 -0.50559455 25
-0.2695764 2.6724863 -0.42842263 37
-0.35858884 3.5549245 -0.44036976 39
-0.36392218 3.6077974 -0.31774056 36
-0.42392945 4.2026887 -0.22492725 16
-0.94526058 9.3709831 -0.16599619 15
-0.92398947 9.1601095 2.4616129 14
-0.92809659 9.2008257 2.1315575 3
-11.822423 117.20338 22.882277 -1
-0.93283194 9.2477703 1.4685607 2
-0.93641442 9.2832861 1.1418102 2
-0.9378199 9.2972193 0.81646085 3
-0.94107574 9.3294964 0.4969663 6
-0.94325775 9.3511286 0.16329806 3
-0.24699697 2.5281565 -0.68140793 9
-0.25483125 2.608345 -0.60638088 33
-0.25195017 2.5788555 -0.50559455 17
-0.26021898 2.6634915 -0.42684755 18
-0.34452379 3.5263999 -0.43669999 46
-0.34483701 3.5296059 -0.31075725 43
-0.40878227 4.1841226 -0.22386377 12
-0.91678834 9.3838577 -0.1661724 19
-0.8923896 9.1341228 2.4538639 8
-0.89918685 9.2036963 2.1315575 14
-0.90106058 9.2228756 1.8000724 3
-0.90377462 9.2506552 1.4685607 6
-0.90724558 9.2861824 1.1418102 2
-0.90860724 9.3001194 0.81646085 3
-0.91079068 9.3224678 0.49643704 5
-0.91290349 9.3440943 0.16312434 4
0.1 0.1 0.1 -1
-0.2452651 2.5994761 -0.60412669 3
-0.243397 2.5796766 -0.50559455 17
-0.25138509 2.6643398 -0.42684755 20
-0.33003107 3.49788 -0.43303025 41
-0.33219475 3.5208123 -0.30988434 42
-0.395843 4.1953969 -0.2243955 13
-0.88472611 9.3768921 -0.16599619 10
-0.8630023 9.1466494 2.4564469 10
-0.86866134 9.2066278 2.1315575 8
-0.8723157 9.2453585 1.8038861 6
-0.87123775 9.2339334 1.4654394 2
-0.87644649 9.2891397 1.1418102 2
-0.87776196 9.3030815 0.81646085 3
-0.87987125 9.3254375 0.49643704 5
-0.88191235 9.3470697 0.16312434 4
-0.23154287 2.5393176 -0.68399882 23
-0.23798209 2.6099362 -0.60638088 27
-0.23618276 2.590203 -0.50750971 14
-0.24391033 2.6749508 -0.42842263 13
-0.31723806 3.4791317 -0.43058375 35
-0.31841838 3.4920764 -0.30726558 28
-0.38266084 4.19662 -0.2243955 12
-0.85435545 9.369668 -0.16581997 10
-0.83250856 9.1300745 2.4512808 10
-0.83884877 9.1996069 2.1293116 8
-0.84237492 9.2382774 1.8019793 6
-0.84312117 9.2464619 1.467 2
-0.84725952 9.2918472 1.1418102 3
-0.84853119 9.3057928 0.81646085 3
-0.84966344 9.3182106 0.49590778 4
-0.85254335 9.3497944 0.16312434 6
-0.22400756 2.5399933 -0.68399882 25
-0.23023723 2.6106308 -0.60638088 15
-0.22849645 2.5908923 -0.50750971 13
-0.23684008 2.6854997 -0.42999771 22
-0.30778581 3.4899442 -0.43180701 34
-0.3063055 3.4731591 -0.30551976 48
-0.3719621 4.2176313 -0.22545899 19
-0.82567304 9.3622017 -0.16564375 12
-0.80626416 9.142127 2.4538639 10
-0.81069326 9.1923485 2.1270654 9
-0.8140983 9.230958 1.8000724 4
-0.81481493 9.2390833 1.4654394 3
-0.81881434 9.2844324 1.1405956 3
-0.82004148 9.2983465 0.81559038 3
-0.82201201 9.3206902 0.49590778 3
-0.82391989 9.3423233 0.16295062 4
-0.21729024 2.5502706 -0.68658972 32
-0.22414453 2.6307173 -0.61088926 41
-0.22164136 2.6013384 -0.50942481 15
-0.22887102 2.6861906 -0.42999771 11
-0.29405928 3.4512858 -0.42691401 33
-0.29430765 3.454201 -0.30377394 40
-0.35775101 4.1988168 -0.2243955 20
-0.7978912 9.3646107 -0.16564375 16
-0.77913541 9.1444788 2.4538639 9
-0.78424275 9.204423 2.1293116 10
-0.78670597 9.2333326 1.8000724 4
-0.78655994 9.2316189 1.4638788 3
-0.78957796 9.2670412 1.1381661 3
-0.79244912 9.3007383 0.81559038 3
-0.79435343 9.3230886 0.49590778 3
-0.79619706 9.3447266 0.16295062 3
-0.20883204 2.550977 -0.68658972 28
-0.21382971 2.612026 -0.60638088 23
-0.21221299 2.5922768 -0.50750971 23
-0.21996203 2.6869347 -0.42999771 23
-0.28180301 3.4423501 -0.42569077 28
-0.28203872 3.4452293 -0.30290103 33
-0.34382525 4.1999798 -0.2243955 13
-0.76683265 9.3672047 -0.16564375 19
-0.74801874 9.1373844 2.4512808 9
-0.75292039 9.1972609 2.1270654 9
-0.75528187 9.2261066 1.7981656 3
-0.75674838 9.2440205 1.4654394 3
-0.75965291 9.279501 1.1393808 3
-0.76078963 9.2933865 0.81471997 3
-0.76261783 9.3157187 0.49537855 3
-0.76520443 9.3473158 0.16295062 4
-0.20081688 2.5516205 -0.68658972 29
-0.20562275 2.6126847 -0.60638088 33
-0.20483814 2.6027155 -0.50942481 18
-0.2115197 2.6876125 -0.42999771 15
-0.27098718 3.4432185 -0.42569077 31
-0.27043223 3.4361672 -0.30202812 23
-0.33141243 4.2109942 -0.22492725 13
-0.73583204 9.3496323 -0.16529132 28
-0.71855116 9.1300583 2.4486978 9
-0.72402269 9.1995802 2.1270654 10
-0.7262935 9.2284346 1.7981656 3
-0.72692877 9.2365055 1.4638788 3
-0.73049676 9.2818413 1.1393808 3
-0.73158985 9.2957306 0.81471997 2
-0.73334789 9.3180685 0.49537855 4
-0.73426634 9.3297377 0.16260317 4
-0.1945319 2.581166 -0.6943624 26
-0.19842201 2.6327825 -0.61088926 28
-0.19546849 2.5935934 -0.50750971 17
-0.20334823 2.6981466 -0.43157279 30
-0.25882167 3.4342012 -0.4244675 26
-0.25828734 3.4271114 -0.30115521 25
-0.31669599 4.2021127 -0.2243955 11
-9.0169315 119.64207 -2.1146011 -1
-0.68899685 9.142024 2.4512808 9
-0.69351178 9.201931 2.1270654 10
-0.69494921 9.2210035 1.7962587 3
-0.69629538 9.2388649 1.4638788 4
-0.6989671 9.2743149 1.1381661 3
-0.70076007 9.2981052 0.81471997 3
-9.0056925 119.49294 6.351007 -1
-9.0169716 119.64259 2.084656 -1
-0.18711759 2.591398 -0.69695336 21
-0.19014992 2.6333928 -0.61088926 31
-0.18802638 2.6039839 -0.50942481 19
-0.19487077 2.698772 -0.43157279 15
-0.24803156 3.4349976 -0.4244675 26
-0.24751949 3.427906 -0.30115521 27
-0.3042123 4.2130466 -0.22492725 12
-0.65815777 9.11485 -0.16106212 1
-0.65957725 9.1345081 2.4486978 8
-0.66319615 9.1846256 2.1225731 9
-0.66527021 9.2133503 1.7943518 3
-0.66655588 9.2311554 1.4623182 4
-0.66982758 9.2764654 1.1381661 3
-0.6715458 9.3002615 0.81471997 3
-0.65517986 9.0736084 0.48214728 1
-0.65888077 9.1248617 0.15895502 1
-0.17831023 2.5823374 -0.6943624 26
-0.18053369 2.6145382 -0.60638088 20
-0.17916872 2.5947702 -0.50750971 17
-0.18639138 2.6993709 -0.43157279 28
-0.23655529 3.4258585 -0.42324427 26
-0.23606297 3.4187286 -0.30028227 24
-0.29166305 4.2239437 -0.22545899 10
-8.2650251 119.69636 -2.1146011 -1
-0.63021165 9.1268978 2.4461148 9
-0.63500983 9.1963854 2.1248193 9
-0.63632238 9.215394 1.7943518 4
-0.63755208 9.2332039 1.4623182 4
-0.64068145 9.2785234 1.1381661 3
-0.6416387 9.292387 0.81384957 3
-8.2547235 119.54716 6.351007 -1
-8.2650614 119.69688 2.084656 -1
-0.17146683 2.60216 -0.69954425 28
-0.17295958 2.624814 -0.60863507 22
-0.17166147 2.605114 -0.50942481 15
-0.17791015 2.6999431 -0.43157279 20
-0.22513892 3.4166813 -0.422021 23
-0.22401157 3.3995728 -0.29853645 26
-0.27839172 4.2248392 -0.22545899 11
-0.61599535 9.3482723 -0.1651151 5
-0.60153562 9.1288319 2.4461148 9
-0.60547471 9.188612 2.1225731 8
-0.60736829 9.2173481 1.7943518 3
-0.60854203 9.2351608 1.4623182 4
-0.61087638 9.270586 1.1369514 3
-0.61178762 9.2844162 0.8129791 3
-7.8791151 119.57251 6.351007 -1
-0.61336839 9.3084049 0.162082 15
-0.16450064 2.6219652 -0.70472604 33
-0.16532269 2.6350679 -0.61088926 24
-0.16470557 2.6252317 -0.51325506 13
-0.16880882 2.6906328 -0.42999771 13
-0.21378255 3.4074662 -0.42079777 30
-0.2133304 3.4002597 -0.29853645 18
-0.2657429 4.2356591 -0.22599073 13
-0.58724999 9.3601398 -0.16529132 16
-0.57285362 9.1306772 2.4461148 10
-0.57721508 9.2001934 2.1248193 8
-0.57840818 9.2192106 1.7943518 3
-0.57890749 9.227169 1.4607575 4
-0.58174896 9.27246 1.1369514 3
-0.58324063 9.2962351 0.81384957 3
-0.57963985 9.238843 0.49061528 1
-0.58224398 9.2803497 0.16156085 1
-0.15741168 2.6417518 -0.70990783 23
-0.15646408 2.6258488 -0.60863507 33
-0.15528978 2.6061411 -0.50942481 9
-0.16094251 2.7010076 -0.43157279 12
-0.20366697 3.4180284 -0.422021 21
-0.20264715 3.4009132 -0.29853645 15
-0.25184095 4.2265048 -0.22545899 12
-0.55784136 9.3619385 -0.16529132 13
-0.54416597 9.132432 2.4461148 10
-0.54772937 9.192235 2.1225731 10
-0.54944235 9.2209826 1.7943518 3
-0.55050421 9.2388029 1.4623182 3
-0.55202544 9.2643328 1.1357367 3
-0.55344027 9.2880764 0.8129791 4
-0.55595815 9.3303328 0.49537855 5
-0.55665439 9.3420181 0.16260317 7
-0.15066454 2.6614933 -0.71508968 28
-0.149223 2.6360285 -0.61088926 21
-0.14866598 2.6261888 -0.51325506 12
-0.15348589 2.7113328 -0.43314788 7
-0.19240272 3.3987997 -0.4195745 27
-0.19199252 3.3915534 -0.29766354 22
-0.24042833 4.2471733 -0.22652248 11
-0.52949643 9.35357 -0.1651151 12
-0.51597512 9.1147156 2.4409487 10
-0.52100384 9.2035484 2.1248193 8
-0.52152598 9.2127714 1.7924449 3
-0.52253145 9.2305336 1.4607575 3
-0.52453524 9.2659302 1.1357367 3
-0.52531654 9.2797318 0.8121087 3
-0.5277077 9.3219709 0.49484929 4
-0.52893364 9.3436279 0.16260317 4
-0.14276707 2.6619287 -0.71508968 23
-0.1414011 2.6364598 -0.61088926 23
-0.13929634 2.5972159 -0.50750971 10
-0.14491166 2.7019153 -0.43157279 9
-0.18284898 3.4092662 -0.42079777 23
-0.18246228 3.4020557 -0.29853645 20
-0.22782567 4.2478681 -0.22652248 12
-0.50227702 9.3650837 -0.16529132 12
-0.48944637 9.1258535 2.4435318 8
-0.49265036 9.1855927 2.120327 10
-0.49366313 9.2044754 1.7905381 4
-0.49408367 9.2123165 1.4576362 4
-0.49704042 9.2674456 1.1357367 3
-0.49831426 9.2911978 0.8129791 3
-0.49951172 9.3135242 0.49432003 4
-0.50013733 9.3251886 0.16225573 3
-0.13395794 2.6720572 -0.71768057 20
-0.13170946 2.6272068 -0.60863507 21
-0.13072094 2.6074889 -0.50942481 8
-0.13646823 2.7221301 -0.43472296 8
-0.17094731 3.4098835 -0.42079777 23
-0.17058577 3.4026721 -0.29853645 37
-0.21299645 4.2486372 -0.22652248 12
-0.4690831 9.3567944 -0.1651151 12
-0.4571045 9.1178579 2.4409487 9
-0.46058366 9.1872559 2.120327 10
-0.46153051 9.2061424 1.7905381 3
-0.4629128 9.2337151 1.4607575 3
-0.46468794 9.269124 1.1357367 3
-0.4653801 9.2829304 0.8121087 3
-0.46699843 9.3152113 0.49432003 3
-0.46758327 9.3268776 0.16225573 4
-0.12646937 2.6917608 -0.72286236 35
-0.1243697 2.6470714 -0.6131435 17
-0.12252864 2.6078868 -0.50942481 9
-0.1274523 2.7126811 -0.43314788 10
-0.15976822 3.4004898 -0.4195745 20
-0.15896007 3.3832893 -0.29679063 22
-0.20011659 4.2592607 -0.22705422 10
-0.43921635 9.3482342 -0.1649389 12
-0.42845771 9.1192484 2.4409487 9
-0.43171883 9.1886578 2.120327 11
-0.43260631 9.2075472 1.7905381 3
-0.433902 9.2351236 1.4607575 7
-0.43556589 9.2705383 1.1357367 3
-0.43621466 9.2843466 0.8121087 3
-0.43726289 9.3066578 0.49379081 5
-0.43827978 9.3283005 0.16225573 4
-0.11716638 2.6728461 -0.71768057 27
-0.11605307 2.647449 -0.6131435 28
-0.11433513 2.6082587 -0.50942481 9
-0.14877003 3.3938017 -0.54182863 34
-0.14951915 3.4108903 -0.42079777 21
-0.14876665 3.3937244 -0.29766354 29
-0.18673477 4.2598681 -0.22705422 10
-0.40984589 9.3495684 -0.1649389 11
-0.39980668 9.1205492 2.4409487 9
-0.40242296 9.180234 2.1180809 9
-0.40367788 9.2088604 1.7905381 3
-0.40445432 9.2265739 1.4591968 5
-0.40643954 9.2718611 1.1357367 3
-0.40704492 9.2856712 0.8121087 3
-0.40802306 9.3079853 0.49379081 4
-0.40853405 9.3196421 0.162082 3
-0.10994682 2.7021527 -0.72545326 20
-0.10773531 2.6478007 -0.6131435 28
-0.10653953 2.6184118 -0.51133996 9
-0.13850886 3.4041193 -0.54340369 5
-0.13799579 3.39151 -0.41835126 18
-0.13850924 3.4041286 -0.29853645 20
-0.17335109 4.2604337 -0.22705422 12
-0.3800649 9.3408194 -0.16476268 12
-0.37115169 9.1217604 2.4409487 9
-0.37397665 9.1911888 2.120327 8
-0.37474543 9.210084 1.7905381 3
-0.37546626 9.2277985 1.4591968 4
-0.37730917 9.2730923 1.1357367 3
-0.37787116 9.2869043 0.8121087 3
-0.3787792 9.3092213 0.49379081 4
-0.37925357 9.3208799 0.162082 4
-0.10218193 2.7217882 -0.73063511 28
-0.099416479 2.6481261 -0.6131435 23
-0.098313026 2.6187336 -0.51133996 11
-0.12781383 3.4045377 -0.54340369 15
-0.12734039 3.3919268 -0.41835126 16
-0.12781419 3.404547 -0.29853645 27
-0.16034034 4.270936 -0.22758596 9
-0.35109311 9.3519583 -0.1649389 12
-0.34213063 9.1132278 2.4383657 9
-0.34473431 9.1825809 2.1180809 9
-0.34544104 9.2014055 1.7886312 3
-0.34610391 9.2190619 1.4576362 4
-0.3478027 9.2643127 1.1345221 3
-0.34831995 9.2780905 0.81123823 3
-0.34953159 9.3103647 0.49379081 4
-0.34996936 9.3220253 0.162082 4
-0.093630679 2.7220957 -0.73063511 25
-0.11688507 3.3981633 -0.78671718 14
-0.090085559 2.6190295 -0.51133996 22
-0.11711755 3.4049222 -0.54340369 6
-0.11736609 3.412148 -0.42079777 16
-0.11746033 3.4148877 -0.29940936 25
-0.14692204 4.2714186 -0.22758596 11
-0.32136768 9.3430233 -0.16476268 8
-0.31349894 9.1142578 2.4383657 9
-0.31554973 9.1738796 2.1158347 9
-0.31653231 9.202446 1.7886312 3
-0.31713969 9.2201042 1.4576362 4
-0.31869635 9.2653599 1.1345221 3
-0.3191703 9.2791395 0.81123823 3
-0.31993726 9.3014374 0.49326155 3
-0.32068166 9.3230782 0.162082 3
-0.10257693 3.2822978 -0.88090754 121
-0.10651319 3.4082515 -0.78897136 63
-0.10638371 3.4041085 -0.66455042 43
-0.10703704 3.4250143 -0.54655385 15
-0.10633594 3.4025798 -0.4195745 15
-0.10704274 3.4251966 -0.30028227 18
-0.13350227 4.2718592 -0.22758596 9
-0.29201415 9.3439865 -0.16476268 10
-0.28456238 9.1055412 2.4357827 10
-0.28703201 9.1845655 2.1180809 8
-0.28762046 9.2033949 1.7886312 3
-0.28786382 9.2111826 1.4560755 3
-0.28927678 9.2563944 1.1333073 3
-0.29001749 9.2800961 0.81123823 3
-0.29071441 9.3023968 0.49326155 3
-0.29139081 9.3240404 0.162082 4
-0.097963512 3.485353 -0.93531656 1
-0.096900254 3.4475245 -0.79798824 156
-0.095688879 3.4044261 -0.66455042 25
-0.096276529 3.4253335 -0.54655385 76
-0.095367059 3.3929763 -0.41835126 13
-0.097121328 3.4553897 -0.30290103 12
-0.12064232 4.2922215 -0.22864945 9
-0.26265776 9.3448572 -0.16476268 9
-0.25649798 9.1257038 2.4409487 10
-0.25790271 9.1756811 2.1158347 9
-0.25842997 9.1944399 1.7867244 3
-0.25892466 9.2120409 1.4560755 3
-0.26019558 9.2572575 1.1333073 3
-0.26086184 9.280961 0.81123823 3
-0.26148868 9.3032637 0.49326155 3
-0.26209709 9.3249092 0.162082 4
0.1 0.1 0.1 -1
-0.08582595 3.4380722 -0.79573399 10
-0.085482977 3.4243336 -0.66838068 26
-0.085268632 3.4157469 -0.5449788 42
-0.085202619 3.4131026 -0.42079777 23
-0.085519627 3.4258018 -0.30028227 10
-0.10740654 4.3025622 -0.22918119 9
-0.23304927 9.3356409 -0.16458645 9
-0.22734535 9.1071501 2.4357827 9
-0.22907522 9.176446 2.1158347 9
-0.22978853 9.20502 1.7886312 3
-0.23022947 9.2226839 1.4576362 3
-0.23111181 9.258029 1.1333073 2
-0.23170359 9.2817354 0.81123823 2
-0.23226038 9.304039 0.49326155 3
-0.23280077 9.3256865 0.162082 3
-0.075641207 3.4665873 -0.93013471 31
-0.075237051 3.4480653 -0.79798824 36
-0.074724711 3.4245851 -0.66838068 28
-0.07475277 3.4258709 -0.54655385 34
-0.074046619 3.3935084 -0.41835126 21
-0.074756749 3.4260535 -0.30028227 19
-0.09410698 4.3128614 -0.22971293 12
-0.2039375 9.346323 -0.16476268 9
-0.19873331 9.1078186 2.4357827 9
-0.20024548 9.1771212 2.1158347 9
-0.20065486 9.1958828 1.7867244 3
-0.20103899 9.2134857 1.4560755 3
-0.20202576 9.258709 1.1333073 3
-0.20232575 9.2724571 0.81036782 3
-0.20302978 9.3047228 0.49326155 4
-0.20328404 9.3163757 0.16190828 3
-0.064569883 3.4571509 -0.92754382 41
-0.064586215 3.4580255 -0.80024242 28
-0.063965708 3.424803 -0.66838068 26
-0.06362091 3.4063418 -0.54340369 25
-0.063570581 3.4036474 -0.4195745 22
-0.063807108 3.4163113 -0.29940936 19
-0.081116706 4.3430882 -0.23130816 17
-0.1743875 9.3369217 -0.16458645 11
-0.17011933 9.1083984 2.4357827 9
-0.17141376 9.1777048 2.1158347 9
-0.17176421 9.1964674 1.7867244 3
-0.17190857 9.2041969 1.454515 3
-0.17293772 9.2592983 1.1333073 3
-0.17338054 9.2830076 0.81123823 3
-0.17379718 9.305315 0.49326155 3
-0.17401484 9.3169689 0.16190828 4
-0.053858645 3.4669943 -0.93013471 35
-0.053722207 3.4582114 -0.80024242 36
-0.053206079 3.4249871 -0.66838068 28
-0.052919272 3.4065249 -0.54340369 27
-0.052877415 3.4038303 -0.4195745 27
-0.053074155 3.4164948 -0.29940936 22
-0.067782328 4.3632913 -0.23237164 21
-0.14520918 9.3474207 -0.16476268 13
-0.14135361 9.0992289 2.4331996 10
-0.14258036 9.1781979 2.1158347 9
-0.14271937 9.1871462 1.7848176 3
-0.14314535 9.2145672 1.4560755 3
-0.14384797 9.2597961 1.1333073 3
-0.14390683 9.2635851 0.80949742 3
-0.14440775 9.2958307 0.49273229 4
-0.1445886 9.3074722 0.16173457 3
-0.043086197 3.476804 -0.93272567 40
-0.042857669 3.4583631 -0.80024242 32
-0.04256754 3.4349515 -0.67029583 25
-0.042339485 3.4165487 -0.5449788 27
-0.042183723 3.4039798 -0.4195745 25
-0.042340674 3.4166448 -0.29940936 23
-0.053826854 4.3435125 -0.23130816 24
-0.11571883 9.3378325 -0.16458645 18
-0.11276688 9.0996275 2.4331996 9
-0.1136248 9.1688566 2.1135888 9
-0.11385645 9.1875496 1.7848176 3
-0.11419628 9.2149715 1.4560755 3
-0.1147568 9.2602024 1.1333073 3
-0.1149272 9.2739525 0.81036782 2
-0.11520337 9.2962379 0.49273229 4
-0.11547154 9.3178778 0.16190828 3
-0.0321633 3.4769223 -0.93272567 40
-0.031992707 3.4584806 -0.80024242 36
-0.031685341 3.4252539 -0.66838068 26
-0.031514544 3.4067903 -0.54340369 30
-0.031397808 3.394171 -0.41835126 23
-0.031606779 3.4167609 -0.29940936 22
-0.039903954 4.3137035 -0.22971293 27
-0.086475126 9.3481483 -0.16476268 20
-0.084179051 9.0999374 2.4331996 10
-0.084729336 9.1594238 2.1113427 8
-0.084992394 9.1878614 1.7848176 3
-0.085154705 9.2054081 1.454515 3
-0.085664496 9.2605171 1.1333073 3
-0.0857917 9.2742682 0.81036782 3
-0.085905485 9.2865686 0.49220303 4
-0.086198047 9.3181953 0.16190828 4
-0.020633234 3.4770098 -0.93272567 47
-0.020581609 3.4683101 -0.80249661 38
-0.0204431 3.4449694 -0.67221093 27
-0.020334246 3.426626 -0.54655385 29
-0.02025995 3.4141059 -0.42079777 25
-0.02033533 3.4268086 -0.30028227 22
-0.025480464 4.2938409 -0.22864945 40
-0.055415746 9.3383856 -0.16458645 20
-0.054059435 9.109827 2.4357827 10
-0.05441295 9.1693993 2.1135888 10
-0.054523882 9.1880932 1.7848176 3
-0.054686621 9.215517 1.4560755 3
-0.054896142 9.250824 1.1320927 3
-0.055036645 9.2745018 0.81036782 3
-0.055109642 9.2868023 0.49220303 4
-0.05523799 9.3084316 0.16173457 4
-0.0097367726 3.486716 -0.93531656 37
-0.009685507 3.4683578 -0.80249661 47
-0.0096203266 3.4450166 -0.67221093 28
-0.009569101 3.4266729 -0.54655385 26
-0.0095064221 3.4042277 -0.4195745 27
-0.0095696105 3.4268556 -0.30028227 28
-0.025822181 9.2468634 -0.49239394 1
-0.026078116 9.3385134 -0.16458645 31
-0.025412872 9.1002913 2.4331996 10
-0.025606211 9.1695251 2.1135888 10
-0.025658414 9.1882191 1.7848176 3
-0.025707414 9.2057657 1.454515 3
-0.025833596 9.2509508 1.1320927 3
-0.025871897 9.2646666 0.80949742 2
-0.025934068 9.2869301 0.49220303 4
-0.026022388 9.3185568 0.16190828 4
-0.0006085491 3.4867294 -0.93531656 36
-0.00060534501 3.4683712 -0.80249661 45
-0.00059955817 3.4352152 -0.67029583 28
-0.00059806957 3.4266863 -0.54655385 27
-0.0005958844 3.414166 -0.42079777 27
-0.00059810147 3.4268689 -0.30028227 28
-0.001631317 9.3467579 -0.49771136 4
-0.0016298844 9.3385496 -0.16458645 5
-0.0015883066 9.1003265 2.4331996 9
-0.0015986895 9.1598158 2.1113427 10
-0.0016019397 9.1784382 1.7829107 4
-0.0016049916 9.1959238 1.4529543 3
-0.0016146018 9.2509871 1.1320927 3
-0.0016169957 9.2647028 0.80949742 3
-0.0016208814 9.2869654 0.49220303 5
-0.0016246563 9.3085947 0.16173457 6
0.022640904 3.5059736 -0.94049835 42
0.022523439 3.4877837 -0.80700505 47
0.022246879 3.4449582 -0.67221093 27
0.022192191 3.4364898 -0.54812896 28
0.02211166 3.4240196 -0.422021 25
0.022129601 3.4267974 -0.30028227 17
0.060358308 9.3465633 -0.49771136 5
0.060240738 9.3283567 -0.16441023 4
0.058704551 9.090476 2.4306166 8
0.059088174 9.1498814 2.1090965 11
0.059271358 9.1782465 1.7829107 3
0.059384275 9.1957321 1.4529543 3
0.059739854 9.2507944 1.1320927 3
0.059828423 9.2645092 0.80949742 3
0.059972193 9.2867727 0.49220303 4
0.060047299 9.2984028 0.16156085 4
0.034172606 3.4962211 -0.93790746 48
0.034184445 3.497432 -0.80925924 44
0.033862505 3.4644945 -0.67604119 30
0.03358788 3.4363973 -0.54812896 29
0.033562999 3.4338517 -0.42324427 25
0.03359051 3.4366665 -0.30115521 38
0.091352299 9.3463116 -0.49771136 4
0.091174349 9.3281059 -0.16441023 4
0.088849328 9.0902319 2.4306166 9
0.089525186 9.159379 2.1113427 7
0.089707196 9.1779995 1.7829107 3
0.089974634 9.2053623 1.454515 3
0.090416268 9.2505455 1.1320927 3
0.090550311 9.2642603 0.80949742 3
0.090767913 9.2865219 0.49220303 5
0.090979308 9.3081503 0.16173457 4
0.045530345 3.5250697 -0.94568014 48
0.045171764 3.4973073 -0.80925924 48
0.044873111 3.474185 -0.67795634 31
0.044638533 3.4560235 -0.55127913 32
0.044350579 3.4337294 -0.42324427 29
0.044386934 3.4365442 -0.30115521 23
0.11968236 9.266098 -0.49345741 6
0.12047897 9.3277731 -0.16441023 4
0.11753142 9.0995674 2.4331996 10
0.11829974 9.1590519 2.1113427 7
0.11854024 9.1776724 1.7829107 3
0.11876608 9.1951571 1.4529543 4
0.11934903 9.2402906 1.130878 3
0.11965435 9.2639303 0.80949742 3
0.11981291 9.276206 0.4916738 4
0.12009209 9.297821 0.16156085 4
0.056914598 3.5442238 -0.95086199 46
0.056471501 3.5166309 -0.81376761 48
0.055787347 3.4740269 -0.67795634 30
0.055654272 3.4657402 -0.55285418 27
0.05529708 3.4434967 -0.4244675 26
