# .PCD v0.7 - Point Cloud Data file format
VERSION 0.7
FIELDS x y z intensity
SIZE 4 4 4 4
TYPE F F F F
COUNT 1 1 1 1
WIDTH 1563
HEIGHT 1
VIEWPOINT 0 0 0 1 0 0 0
POINTS 1563
DATA ascii
0.1 0.1 0.1 -1
114.92059 32.627594 -11.344498 -1
115.32137 32.263405 -7.7495198 -1
117.78838 21.320839 -8.4451542 -1
119.18322 10.57392 -9.1407118 -1
119.59813 -0.48010024 -9.8008928 -1
115.24425 33.089294 -4.8848734 -1
117.8475 21.926855 -5.583735 -1
119.3174 11.131756 -6.2803149 -1
119.79688 0.18817665 -6.9766822 -1
115.25269 33.353161 -2.0942888 -1
117.86604 22.356256 -2.7915766 -1
119.41095 11.350743 -3.4908643 -1
119.92585 0.50234717 -4.1879396 -1
0.1 0.1 0.1 -1
0.1 0.1 0.1 -1
119.9026 -0.48132247 4.8099556 -1
115.44006 32.014362 6.9766822 -1
2.2076998 0.0073210364 0.17953645 8
114.95515 31.167997 14.624321 -1
2.3464448 0.0028667247 0.42709854 4
10.961813 2.9228599 3.0398297 4
115.47561 32.632771 0.69742966 -1
118.05495 21.518082 0 -1
119.51167 10.792294 -0.69742966 -1
119.99218 -0.1675408 -1.3594428 -1
115.41729 32.659801 3.4908643 -1
117.95398 21.882772 2.8290563 -1
119.49171 10.832543 2.0942888 -1
119.99136 -0.12565471 1.434417 -1
0.1 0.1 0.1 -1
0.1 0.1 0.1 -1
0.1 0.1 0.1 -1
115.03378 32.226246 -11.344498 -1
115.43329 31.860661 -7.7495198 -1
117.86208 20.909552 -8.4451542 -1
119.21941 10.157829 -9.1407118 -1
119.59573 -0.8975727 -9.8008928 -1
115.35905 32.686817 -4.8848734 -1
117.92332 21.515356 -5.583735 -1
119.35553 10.715192 -6.2803149 -1
119.7968 -0.22999363 -6.9766822 -1
115.3684 32.950649 -2.0942888 -1
117.94337 21.944691 -2.7915766 -1
119.44984 10.933852 -3.4908643 -1
119.92687 0.083724767 -4.1879396 -1
0.1 0.1 0.1 -1
0.1 0.1 0.1 -1
119.90018 -0.8998577 4.8099556 -1
115.5511 31.611204 6.9766822 -1
119.60516 -0.020875039 9.7265797 -1
115.06324 30.766539 14.624321 -1
118.05991 -0.26786989 21.489235 -1
10.892544 2.8637021 3.0178301 19
115.58881 32.229488 0.69742966 -1
118.12935 21.105862 0 -1
119.54861 10.375054 -0.69742966 -1
119.99087 -0.58639067 -1.3594428 -1
115.53059 32.256721 3.4908643 -1
118.02964 21.470903 2.8290563 -1
119.5288 10.415374 2.0942888 -1
119.99019 -0.54450196 1.434417 -1
0.1 0.1 0.1 -1
0.1 0.1 0.1 -1
0.1 0.1 0.1 -1
115.14558 31.824509 -11.344498 -1
115.54379 31.457529 -7.7495198 -1
117.93435 20.498009 -8.4451542 -1
119.25414 9.7416134 -9.1407118 -1
119.59186 -1.3150342 -9.8008928 -1
115.47244 32.283939 -4.8848734 -1
117.99771 21.103596 -5.583735 -1
119.3922 10.298498 -6.2803149 -1
119.79527 -0.64816111 -6.9766822 -1
115.48272 32.547737 -2.0942888 -1
118.01925 21.532858 -2.7915766 -1
119.48728 10.516828 -3.4908643 -1
119.92643 -0.33489865 -4.1879396 -1
0.1 0.1 0.1 -1
0.1 0.1 0.1 -1
119.89632 -1.3183819 4.8099556 -1
115.66074 31.207664 6.9766822 -1
2.1528783 -0.0078907469 0.17507844 4
115.16994 30.364706 14.624321 -1
118.05825 -0.6799742 21.489235 -1
112.20384 29.080576 31.058285 -1
115.70061 31.825811 0.69742966 -1
118.2023 20.693386 0 -1
119.58411 9.9576883 -0.69742966 -1
119.98809 -1.0052334 -1.3594428 -1
115.64249 31.853247 3.4908643 -1
118.10387 21.058771 2.8290563 -1
119.56443 9.9980764 2.0942888 -1
119.98756 -0.96334255 1.434417 -1
0.1 0.1 0.1 -1
0.1 0.1 0.1 -1
0.1 0.1 0.1 -1
115.25596 31.42238 -11.344498 -1
115.6529 31.054014 -7.7495198 -1
118.00518 20.086216 -8.4451542 -1
119.28741 9.3252802 -9.1407118 -1
119.58654 -1.7324797 -9.8008928 -1
115.58443 31.880669 -4.8848734 -1
118.07066 20.691578 -5.583735 -1
119.42743 9.8816795 -6.2803149 -1
119.79227 -1.0663207 -6.9766822 -1
115.59563 32.144428 -2.0942888 -1
118.0937 21.120762 -2.7915766 -1
119.52326 10.099675 -3.4908643 -1
119.92453 -0.75351799 -4.1879396 -1
0.1 0.1 0.1 -1
0.1 0.1 0.1 -1
119.89098 -1.7368902 4.8099556 -1
115.76897 30.803741 6.9766822 -1
119.6021 -0.85586923 9.7265797 -1
115.27522 29.962503 14.624321 -1
118.05516 -1.0920702 21.489235 -1
112.30467 28.688734 31.058285 -1
115.811 31.421747 0.69742966 -1
118.27381 20.280657 0 -1
119.61813 9.5402012 -0.69742966 -1
119.98385 -1.4240638 -1.3594428 -1
115.75297 31.449387 3.4908643 -1
118.17666 20.646383 2.8290563 -1
119.5986 9.580658 2.0942888 -1
119.98347 -1.3821714 1.434417 -1
0.1 0.1 0.1 -1
0.1 0.1 0.1 -1
0.1 0.1 0.1 -1
115.36494 31.019871 -11.344498 -1
115.7606 30.65012 -7.7495198 -1
118.07458 19.674177 -8.4451542 -1
119.31924 8.9088326 -9.1407118 -1
119.57977 -2.149904 -9.8008928 -1
115.69501 31.477009 -4.8848734 -1
118.14217 20.279308 -5.583735 -1
119.46119 9.4647398 -6.2803149 -1
119.78782 -1.4844673 -6.9766822 -1
115.70713 31.74073 -2.0942888 -1
118.1667 20.70841 -2.7915766 -1
119.55779 9.6823997 -3.4908643 -1
119.92117 -1.1721281 -4.1879396 -1
0.1 0.1 0.1 -1
0.1 0.1 0.1 -1
119.88419 -2.1553771 4.8099556 -1
115.87579 30.399445 6.9766822 -1
119.59838 -1.2733532 9.7265797 -1
115.37911 29.559935 14.624321 -1
118.05063 -1.504153 21.489235 -1
112.40413 28.296543 31.058285 -1
115.91998 31.0173 0.69742966 -1
118.34389 19.86768 0 -1
119.65071 9.1225977 -0.69742966 -1
119.97815 -1.8428769 -1.3594428 -1
115.86205 31.045141 3.4908643 -1
118.24801 20.233744 2.8290563 -1
119.63132 9.1631222 2.0942888 -1
119.97791 -1.8009834 1.434417 -1
0.1 0.1 0.1 -1
0.1 0.1 0.1 -1
0.1 0.1 0.1 -1
115.47252 30.616983 -11.344498 -1
115.86687 30.245853 -7.7495198 -1
118.14253 19.2619 -8.4451542 -1
119.34961 8.4922762 -9.1407118 -1
119.57153 -2.5673022 -9.8008928 -1
115.80418 31.072968 -4.8848734 -1
118.21223 19.866793 -5.583735 -1
119.4935 9.0476847 -6.2803149 -1
119.78191 -1.9025958 -6.9766822 -1
115.81722 31.336643 -2.0942888 -1
118.23827 20.295805 -2.7915766 -1
119.59086 9.2650061 -3.4908643 -1
119.91635 -1.590724 -4.1879396 -1
0.1 0.1 0.1 -1
0.1 0.1 0.1 -1
119.87593 -2.573838 4.8099556 -1
115.9812 29.994778 6.9766822 -1
119.59321 -1.6908218 9.7265797 -1
115.48159 29.157005 14.624321 -1
118.04465 -1.9162174 21.489235 -1
112.50222 27.904007 31.058285 -1
116.02754 30.612474 0.69742966 -1
118.41251 19.454462 0 -1
119.68182 8.7048836 -0.69742966 -1
119.97099 -2.2616677 -1.3594428 -1
115.9697 30.640518 3.4908643 -1
118.31792 19.820858 2.8290563 -1
119.66257 8.7454758 2.0942888 -1
119.97089 -2.2197735 1.434417 -1
0.1 0.1 0.1 -1
0.1 0.1 0.1 -1
0.1 0.1 0.1 -1
115.57869 30.213722 -11.344498 -1
115.97175 29.841219 -7.7495198 -1
118.20905 18.84939 -8.4451542 -1
119.37852 8.0756168 -9.1407118 -1
119.56184 -2.9846692 -9.8008928 -1
115.91194 30.668545 -4.8848734 -1
118.28086 19.454033 -5.583735 -1
119.52435 8.6305189 -6.2803149 -1
119.77454 -2.3207011 -6.9766822 -1
115.9259 30.932175 -2.0942888 -1
118.30839 19.882952 -2.7915766 -1
119.62247 8.8474998 -3.4908643 -1
119.91006 -2.0093005 -4.1879396 -1
0.1 0.1 0.1 -1
0.1 0.1 0.1 -1
119.86622 -2.9922674 4.8099556 -1
116.0852 29.589746 6.9766822 -1
119.58658 -2.1082697 9.7265797 -1
115.58266 28.753723 14.624321 -1
118.03725 -2.3282585 21.489235 -1
112.59894 27.511129 31.058285 -1
116.13369 30.207275 0.69742966 -1
118.47971 19.041006 0 -1
119.71148 8.2870626 -0.69742966 -1
119.96236 -2.6804307 -1.3594428 -1
116.07595 30.235521 3.4908643 -1
118.38638 19.407732 2.8290563 -1
119.69237 8.3277216 2.0942888 -1
119.96241 -2.6385367 1.434417 -1
0.1 0.1 0.1 -1
0.1 0.1 0.1 -1
0.1 0.1 0.1 -1
115.68345 29.810093 -11.344498 -1
116.07521 29.43622 -7.7495198 -1
118.27413 18.436647 -8.4451542 -1
119.40598 7.6588583 -9.1407118 -1
119.5507 -3.4019997 -9.8008928 -1
116.01829 30.26375 -4.8848734 -1
118.34805 19.041039 -5.583735 -1
119.55376 8.2132483 -6.2803149 -1
119.76571 -2.7387781 -6.9766822 -1
116.03316 30.527328 -2.0942888 -1
118.37708 19.469858 -2.7915766 -1
119.65263 8.4298849 -3.4908643 -1
119.90232 -2.4278524 -4.1879396 -1
0.1 0.1 0.1 -1
0.1 0.1 0.1 -1
119.85504 -3.4106603 4.8099556 -1
116.18777 29.184353 6.9766822 -1
119.57848 -2.5256917 9.7265797 -1
115.68233 28.350088 14.624321 -1
118.0284 -2.7402713 21.489235 -1
17.697699 4.2586432 4.8774447 3
116.23843 29.80171 0.69742966 -1
118.54545 18.627319 0 -1
119.73968 7.8691416 -0.69742966 -1
119.95227 -3.0991611 -1.3594428 -1
116.18079 29.830156 3.4908643 -1
118.45341 18.994368 2.8290563 -1
119.72071 7.9098668 2.0942888 -1
119.95247 -3.0572674 1.434417 -1
0.1 0.1 0.1 -1
0.1 0.1 0.1 -1
0.1 0.1 0.1 -1
115.7868 29.406101 -11.344498 -1
116.17725 29.030863 -7.7495198 -1
118.33776 18.023682 -8.4451542 -1
119.43199 7.2420073 -9.1407118 -1
119.53809 -3.8192887 -9.8008928 -1
116.12322 29.858587 -4.8848734 -1
118.4138 18.62781 -5.583735 -1
119.5817 7.7958779 -6.2803149 -1
119.75542 -3.1568217 -6.9766822 -1
116.13902 30.122112 -2.0942888 -1
118.44431 19.056526 -2.7915766 -1
119.68132 8.0121679 -3.4908643 -1
119.89312 -2.846375 -4.1879396 -1
0.1 0.1 0.1 -1
0.1 0.1 0.1 -1
119.84241 -3.8290117 4.8099556 -1
116.28894 28.778603 6.9766822 -1
119.56894 -2.9430833 9.7265797 -1
115.78059 27.94611 14.624321 -1
118.01812 -3.1522505 21.489235 -1
17.67956 4.1890464 4.8683863 3
116.34174 29.395781 0.69742966 -1
118.60975 18.213406 0 -1
119.76642 7.4511242 -0.69742966 -1
119.94072 -3.5178537 -1.3594428 -1
116.28421 29.424429 3.4908643 -1
118.51899 18.580772 2.8290563 -1
119.74759 7.4919152 2.0942888 -1
119.94107 -3.4759612 1.434417 -1
0.1 0.1 0.1 -1
0.1 0.1 0.1 -1
0.1 0.1 0.1 -1
115.88874 29.001751 -11.344498 -1
116.27788 28.625151 -7.7495198 -1
118.39996 17.610497 -8.4451542 -1
119.45654 6.8250675 -9.1407118 -1
119.52403 -4.2365313 -9.8008928 -1
116.22674 29.453058 -4.8848734 -1
118.4781 18.214355 -5.583735 -1
119.60818 7.3784127 -6.2803149 -1
119.74367 -3.574827 -6.9766822 -1
116.24346 29.716528 -2.0942888 -1
118.51012 18.642962 -2.7915766 -1
119.70856 7.5943537 -3.4908643 -1
119.88245 -3.2648625 -4.1879396 -1
0.1 0.1 0.1 -1
0.1 0.1 0.1 -1
119.82832 -4.2473164 4.8099556 -1
116.38869 28.372503 6.9766822 -1
119.55794 -3.3604388 9.7265797 -1
115.87743 27.54179 14.624321 -1
118.00639 -3.5641913 21.489235 -1
17.656446 4.1185308 4.8580337 3
116.44365 28.989492 0.69742966 -1
118.6726 17.799269 0 -1
119.79169 7.0330162 -0.69742966 -1
119.92771 -3.9365036 -1.3594428 -1
116.38621 29.018341 3.4908643 -1
118.58313 18.16695 2.8290563 -1
119.77301 7.0738726 2.0942888 -1
119.92821 -3.8946123 1.434417 -1
0.1 0.1 0.1 -1
0.1 0.1 0.1 -1
0.1 0.1 0.1 -1
115.98927 28.597048 -11.344498 -1
116.37709 28.219091 -7.7495198 -1
118.46071 17.197096 -8.4451542 -1
119.47964 6.4080448 -9.1407118 -1
119.50851 -4.6537223 -9.8008928 -1
116.32884 29.047173 -4.8848734 -1
118.54095 17.800678 -5.583735 -1
119.63321 6.9608574 -6.2803149 -1
119.73046 -3.9927886 -6.9766822 -1
116.34648 29.310581 -2.0942888 -1
118.57447 18.229172 -2.7915766 -1
119.73434 7.1764464 -3.4908643 -1
119.87032 -3.6833105 -4.1879396 -1
0.1 0.1 0.1 -1
0.1 0.1 0.1 -1
119.81276 -4.6655693 4.8099556 -1
116.48701 27.966059 6.9766822 -1
119.54548 -3.7777534 9.7265797 -1
17.671366 4.1350207 2.2283809 3
117.99323 -3.976089 21.489235 -1
112.97208 25.936321 31.058285 -1
116.54413 28.582851 0.69742966 -1
118.73401 17.384916 0 -1
119.81551 6.6148219 -0.69742966 -1
119.91324 -4.3551054 -1.3594428 -1
116.48679 28.6119 3.4908643 -1
118.64582 17.752907 2.8290563 -1
119.79697 6.6557436 2.0942888 -1
119.91388 -4.3132162 1.434417 -1
0.1 0.1 0.1 -1
0.1 0.1 0.1 -1
0.1 0.1 0.1 -1
116.08839 28.191996 -11.344498 -1
116.47488 27.812687 -7.7495198 -1
118.52001 16.783485 -8.4451542 -1
119.50128 5.9909439 -9.1407118 -1
119.49155 -5.0708566 -9.8008928 -1
116.42953 28.640932 -4.8848734 -1
118.60237 17.386786 -5.583735 -1
119.65678 6.5432172 -6.2803149 -1
119.7158 -4.4107013 -6.9766822 -1
116.44809 28.904278 -2.0942888 -1
118.63737 17.815159 -2.7915766 -1
119.75866 6.7584519 -3.4908643 -1
119.85674 -4.1017137 -4.1879396 -1
0.1 0.1 0.1 -1
0.1 0.1 0.1 -1
119.79574 -5.0837655 4.8099556 -1
116.58393 27.559273 6.9766822 -1
119.53157 -4.1950221 9.7265797 -1
116.06689 26.732147 14.624321 -1
117.97864 -4.387938 21.489235 -1
113.06192 25.541819 31.058285 -1
116.6432 28.175863 0.69742966 -1
118.79397 16.97035 0 -1
119.83788 6.1965475 -0.69742966 -1
119.89731 -4.7736545 -1.3594428 -1
116.58596 28.205112 3.4908643 -1
118.70707 17.338648 2.8290563 -1
119.81948 6.2375336 2.0942888 -1
119.89809 -4.7317677 1.434417 -1
0.1 0.1 0.1 -1
0.1 0.1 0.1 -1
0.1 0.1 0.1 -1
116.18609 27.786598 -11.344498 -1
116.57126 27.405945 -7.7495198 -1
118.57788 16.369671 -8.4451542 -1
119.52146 5.57377 -9.1407118 -1
119.47311 -5.4879289 -9.8008928 -1
116.52879 28.234343 -4.8848734 -1
118.66234 16.972679 -5.583735 -1
119.67889 6.1254969 -6.2803149 -1
119.69967 -4.8285608 -6.9766822 -1
116.54827 28.497622 -2.0942888 -1
118.69884 17.400928 -2.7915766 -1
119.78152 6.3403749 -3.4908643 -1
119.84169 -4.5200667 -4.1879396 -1
0.1 0.1 0.1 -1
0.1 0.1 0.1 -1
119.77727 -5.5018997 4.8099556 -1
116.67942 27.152151 6.9766822 -1
119.5162 -4.6122394 9.7265797 -1
17.665922 4.0038729 2.2241156 3
117.9626 -4.7997336 21.489235 -1
10.857723 2.4130645 2.9803014 2
116.74084 27.76853 0.69742966 -1
118.85249 16.555578 0 -1
119.85877 5.7781978 -0.69742966 -1
119.87991 -5.1921449 -1.3594428 -1
116.6837 27.797979 3.4908643 -1
118.76687 16.924177 2.8290563 -1
119.84052 5.8192477 2.0942888 -1
119.88084 -5.1502609 1.434417 -1
0.1 0.1 0.1 -1
0.1 0.1 0.1 -1
0.1 0.1 0.1 -1
116.28237 27.380865 -11.344498 -1
116.66621 26.998869 -7.7495198 -1
118.6343 15.955658 -8.4451542 -1
119.54019 5.1565285 -9.1407118 -1
119.45323 -5.9049344 -9.8008928 -1
116.62664 27.82741 -4.8848734 -1
118.72086 16.558367 -5.583735 -1
119.69954 5.7077026 -6.2803149 -1
119.68208 -5.2463613 -6.9766822 -1
116.64703 28.090618 -2.0942888 -1
118.75886 16.986486 -2.7915766 -1
119.80293 5.9222212 -3.4908643 -1
119.82518 -4.938365 -4.1879396 -1
0.1 0.1 0.1 -1
0.1 0.1 0.1 -1
119.75733 -5.9199672 4.8099556 -1
116.77348 26.744698 6.9766822 -1
119.49937 -5.0294008 9.7265797 -1
116.25068 25.921204 14.624321 -1
117.94513 -5.2114706 21.489235 -1
10.86608 2.3751493 2.9803014 2
116.83705 27.360859 0.69742966 -1
118.90955 16.140606 0 -1
119.87821 5.359777 -0.69742966 -1
119.86106 -5.6105723 -1.3594428 -1
116.78002 27.390507 3.4908643 -1
118.82522 16.509501 2.8290563 -1
119.8601 5.4008908 2.0942888 -1
119.86214 -5.5686922 1.434417 -1
0.1 0.1 0.1 -1
0.1 0.1 0.1 -1
0.1 0.1 0.1 -1
116.37724 26.974796 -11.344498 -1
116.75975 26.591463 -7.7495198 -1
118.68927 15.54145 -8.4451542 -1
119.55746 4.739224 -9.1407118 -1
119.43189 -6.3218679 -9.8008928 -1
116.72307 27.420137 -4.8848734 -1
118.77794 16.143854 -5.583735 -1
119.71873 5.2898383 -6.2803149 -1
119.66304 -5.6640978 -6.9766822 -1
116.74438 27.683273 -2.0942888 -1
118.81743 16.571836 -2.7915766 -1
119.82287 5.5039945 -3.4908643 -1
119.80721 -5.3566027 -4.1879396 -1
0.1 0.1 0.1 -1
0.1 0.1 0.1 -1
119.73594 -6.3379622 4.8099556 -1
116.86613 26.33692 6.9766822 -1
119.48109 -5.4465008 9.7265797 -1
17.654663 3.8719399 2.2192407 3
117.92622 -5.6231441 21.489235 -1
10.869583 2.3361902 2.9790072 3
116.93185 26.952856 0.69742966 -1
118.96516 15.725435 0 -1
119.89619 4.9412913 -0.69742966 -1
119.84074 -6.0289311 -1.3594428 -1
116.87492 26.982702 3.4908643 -1
118.88213 16.094622 2.8290563 -1
119.87823 4.9824681 2.0942888 -1
119.84197 -5.9870548 1.434417 -1
0.1 0.1 0.1 -1
0.1 0.1 0.1 -1
0.1 0.1 0.1 -1
116.4707 26.568399 -11.344498 -1
116.85186 26.183733 -7.7495198 -1
118.7428 15.127052 -8.4451542 -1
119.57328 4.3218617 -9.1407118 -1
119.4091 -6.7387247 -9.8008928 -1
116.81807 27.012531 -4.8848734 -1
118.83356 15.729143 -5.583735 -1
119.73647 4.8719096 -6.2803149 -1
119.64254 -6.0817652 -6.9766822 -1
116.8403 27.275591 -2.0942888 -1
118.87455 16.156984 -2.7915766 -1
119.84135 5.085701 -3.4908643 -1
119.78778 -5.774775 -4.1879396 -1
0.1 0.1 0.1 -1
0.1 0.1 0.1 -1
119.71308 -6.7558799 4.8099556 -1
116.95735 25.928822 6.9766822 -1
119.46134 -5.8635345 9.7265797 -1
17.672922 3.8113363 2.2198501 2
117.90587 -6.034749 21.489235 -1
10.849319 2.292244 2.9712427 3
117.02522 26.544523 0.69742966 -1
119.01933 15.310074 0 -1
119.91271 4.5227456 -0.69742966 -1
119.81897 -6.447217 -1.3594428 -1
116.9684 26.574568 3.4908643 -1
118.93758 15.679548 2.8290563 -1
119.89489 4.5639844 2.0942888 -1
119.82034 -6.405345 1.434417 -1
0.1 0.1 0.1 -1
0.1 0.1 0.1 -1
0.1 0.1 0.1 -1
116.56273 26.16168 -11.344498 -1
116.94254 25.775684 -7.7495198 -1
118.79488 14.71247 -8.4451542 -1
119.58764 3.9044466 -9.1407118 -1
119.38484 -7.155499 -9.8008928 -1
116.91165 26.604595 -4.8848734 -1
118.88775 15.31424 -5.583735 -1
119.75275 4.4539218 -6.2803149 -1
119.62058 -6.4993587 -6.9766822 -1
116.9348 26.867577 -2.0942888 -1
118.93023 15.741937 -2.7915766 -1
119.85838 4.667346 -3.4908643 -1
119.7669 -6.1928773 -4.1879396 -1
0.1 0.1 0.1 -1
0.1 0.1 0.1 -1
119.68877 -7.1737151 4.8099556 -1
117.04715 25.520405 6.9766822 -1
119.44015 -6.2804966 9.7265797 -1
116.51575 24.702429 14.624321 -1
117.88409 -6.446281 21.489235 -1
10.880898 2.259268 2.9777131 3
117.11716 26.135866 0.69742966 -1
119.07205 14.894526 0 -1
119.92776 4.1041446 -0.69742966 -1
119.79573 -6.8654237 -1.3594428 -1
117.06045 26.166111 3.4908643 -1
118.99158 15.264283 2.8290563 -1
119.91009 4.1454453 2.0942888 -1
119.79725 -6.8235569 1.434417 -1
0.1 0.1 0.1 -1
0.1 0.1 0.1 -1
0.1 0.1 0.1 -1
116.65334 25.754641 -11.344498 -1
117.03181 25.367321 -7.7495198 -1
118.8455 14.297709 -8.4451542 -1
119.60054 3.4869843 -9.1407118 -1
119.35914 -7.5721865 -9.8008928 -1
117.00381 26.196335 -4.8848734 -1
118.94048 14.899152 -5.583735 -1
119.76756 4.0358796 -6.2803149 -1
119.59717 -6.9168725 -6.9766822 -1
117.02787 26.459234 -2.0942888 -1
118.98445 15.326697 -2.7915766 -1
119.87393 4.2489338 -3.4908643 -1
119.74455 -6.6109042 -4.1879396 -1
0.1 0.1 0.1 -1
0.1 0.1 0.1 -1
119.663 -7.5914636 4.8099556 -1
117.13552 25.111679 6.9766822 -1
119.4175 -6.6973825 9.7265797 -1
116.60126 24.295563 14.624321 -1
117.86087 -6.8577337 21.489235 -1
10.879254 2.2193422 2.9751248 3
117.20768 25.726892 0.69742966 -1
119.12331 14.478795 0 -1
119.94136 3.6854935 -0.69742966 -1
119.77104 -7.2835469 -1.3594428 -1
117.15107 25.757334 3.4908643 -1
119.04414 14.848832 2.8290563 -1
119.92383 3.726856 2.0942888 -1
119.77271 -7.2416859 1.434417 -1
0.1 0.1 0.1 -1
0.1 0.1 0.1 -1
0.1 0.1 0.1 -1
116.74252 25.347286 -11.344498 -1
117.11964 24.958651 -7.7495198 -1
118.89469 13.882773 -8.4451542 -1
119.61198 3.0694792 -9.1407118 -1
119.33199 -7.9887815 -9.8008928 -1
117.09454 25.787756 -4.8848734 -1
118.99176 14.483881 -5.583735 -1
119.78092 3.6177881 -6.2803149 -1
119.5723 -7.3343024 -6.9766822 -1
117.11952 26.05057 -2.0942888 -1
119.03722 14.91127 -2.7915766 -1
119.88804 3.8304696 -3.4908643 -1
119.72074 -7.0288506 -4.1879396 -1
0.1 0.1 0.1 -1
0.1 0.1 0.1 -1
119.63577 -8.009119 4.8099556 -1
117.22246 24.702646 6.9766822 -1
119.39339 -7.1141863 9.7265797 -1
17.653522 3.614116 2.212538 2
117.83621 -7.2691031 21.489235 -1
10.863257 2.1766088 2.9686544 3
117.29677 25.317604 0.69742966 -1
119.17313 14.062889 0 -1
119.9535 3.2667975 -0.69742966 -1
119.74489 -7.7015815 -1.3594428 -1
117.24026 25.348244 3.4908643 -1
119.09525 14.4332 2.8290563 -1
119.9361 3.3082209 2.0942888 -1
119.7467 -7.6597266 1.434417 -1
0.1 0.1 0.1 -1
0.1 0.1 0.1 -1
0.1 0.1 0.1 -1
116.83029 24.939625 -11.344498 -1
117.20605 24.549675 -7.7495198 -1
118.94243 13.467669 -8.4451542 -1
119.62196 2.6519368 -9.1407118 -1
119.30337 -8.4052792 -9.8008928 -1
117.18384 25.378862 -4.8848734 -1
119.0416 14.068434 -5.583735 -1
119.79282 3.1996527 -6.2803149 -1
119.54597 -7.7516432 -6.9766822 -1
117.20974 25.641586 -2.0942888 -1
119.08855 14.495663 -2.7915766 -1
119.90068 3.4119589 -3.4908643 -1
119.69548 -7.4467111 -4.1879396 -1
0.1 0.1 0.1 -1
0.1 0.1 0.1 -1
119.60709 -8.4266768 4.8099556 -1
117.30798 24.293314 6.9766822 -1
119.36783 -7.5309038 9.7265797 -1
17.636839 3.5466015 2.2088819 2
117.81012 -7.6803842 21.489235 -1
10.861312 2.136811 2.9660664 3
117.38443 24.908009 0.69742966 -1
119.2215 13.646811 0 -1
2.3093102 0.05482519 -0.013425521 31
119.71727 -8.1195221 -1.3594428 -1
117.32803 24.938845 3.4908643 -1
119.14491 14.017392 2.8290563 -1
119.94692 2.8895457 2.0942888 -1
119.71923 -8.0776739 1.434417 -1
0.1 0.1 0.1 -1
0.1 0.1 0.1 -1
0.1 0.1 0.1 -1
116.91663 24.53166 -11.344498 -1
117.29103 24.1404 -7.7495198 -1
118.98872 13.052401 -8.4451542 -1
119.63049 2.2343619 -9.1407118 -1
119.2733 -8.8216743 -9.8008928 -1
117.27171 24.96966 -4.8848734 -1
119.08997 13.652816 -5.583735 -1
119.80326 2.7814782 -6.2803149 -1
119.51818 -8.168889 -6.9766822 -1
117.29853 25.232292 -2.0942888 -1
119.13843 14.079877 -2.7915766 -1
119.91186 2.9934068 -3.4908643 -1
119.66875 -7.864481 -4.1879396 -1
0.1 0.1 0.1 -1
0.1 0.1 0.1 -1
119.57694 -8.8441324 4.8099556 -1
117.39206 23.883684 6.9766822 -1
119.34081 -7.9475293 9.7265797 -1
116.84929 23.073208 14.624321 -1
117.78259 -8.0915709 21.489235 -1
113.80842 21.977854 31.058285 -1
117.47066 24.498108 0.69742966 -1
119.2684 13.230568 0 -1
2.2894921 0.046358977 -0.013309282 31
119.6882 -8.537364 -1.3594428 -1
117.41438 24.52914 3.4908643 -1
119.19312 13.601414 2.8290563 -1
119.95628 2.4708352 2.0942888 -1
119.6903 -8.4955225 1.434417 -1
0.1 0.1 0.1 -1
0.1 0.1 0.1 -1
0.1 0.1 0.1 -1
117.00156 24.123394 -11.344498 -1
117.37458 23.730829 -7.7495198 -1
119.03355 12.636973 -8.4451542 -1
119.63757 1.8167601 -9.1407118 -1
119.24178 -9.2379618 -9.8008928 -1
117.35815 24.560152 -4.8848734 -1
119.13691 13.237031 -5.583735 -1
119.81224 2.3632698 -6.2803149 -1
119.48894 -8.5860357 -6.9766822 -1
117.38589 24.822691 -2.0942888 -1
119.18684 13.66392 -2.7915766 -1
119.92158 2.5748179 -3.4908643 -1
119.64057 -8.282155 -4.1879396 -1
0.1 0.1 0.1 -1
0.1 0.1 0.1 -1
119.54534 -9.2614803 4.8099556 -1
117.47472 23.473764 6.9766822 -1
119.31235 -8.3640585 9.7265797 -1
116.92912 22.665188 14.624321 -1
117.75363 -8.5026598 21.489235 -1
113.88445 21.580454 31.058285 -1
117.55546 24.08791 0.69742966 -1
119.31386 12.814163 0 -1
2.3046374 0.038618185 -0.013396461 8
119.65767 -8.955102 -1.3594428 -1
117.49928 24.119139 3.4908643 -1
119.23986 13.185268 2.8290563 -1
119.96417 2.0520945 2.0942888 -1
119.65992 -8.9132681 1.434417 -1
0.1 0.1 0.1 -1
0.1 0.1 0.1 -1
0.1 0.1 0.1 -1
117.08505 23.714836 -11.344498 -1
117.4567 23.320972 -7.7495198 -1
119.07693 12.221392 -8.4451542 -1
119.64317 1.3991359 -9.1407118 -1
119.20881 -9.6541376 -9.8008928 -1
117.44317 24.150347 -4.8848734 -1
119.18239 12.821085 -5.583735 -1
119.81976 1.9450327 -6.2803149 -1
119.45824 -9.0030775 -6.9766822 -1
117.47182 24.412786 -2.0942888 -1
119.23382 13.247798 -2.7915766 -1
2.298655 0.041327126 -0.066908233 20
119.61094 -8.699728 -4.1879396 -1
0.1 0.1 0.1 -1
0.1 0.1 0.1 -1
119.51229 -9.6787148 4.8099556 -1
117.55594 23.063559 6.9766822 -1
119.28242 -8.7804852 9.7265797 -1
117.00752 22.256891 14.624321 -1
117.72324 -8.9136448 21.489235 -1
17.677902 3.2859805 4.8179164 4
117.63882 23.677418 0.69742966 -1
119.35786 12.397602 0 -1
119.98742 1.5916667 -0.69742966 -1
119.62568 -9.3727303 -1.3594428 -1
117.58276 23.708843 3.4908643 -1
119.28516 12.768964 2.8290563 -1
119.9706 1.6333289 2.0942888 -1
119.62807 -9.330905 1.434417 -1
0.1 0.1 0.1 -1
0.1 0.1 0.1 -1
0.1 0.1 0.1 -1
117.16711 23.305988 -11.344498 -1
117.53739 22.91083 -7.7495198 -1
119.11887 11.805661 -8.4451542 -1
119.64733 0.98149478 -9.1407118 -1
119.17439 -10.070195 -9.8008928 -1
117.52676 23.740246 -4.8848734 -1
119.22642 12.404983 -5.583735 -1
119.82582 1.5267718 -6.2803149 -1
119.42609 -9.4200096 -6.9766822 -1
117.55633 24.002584 -2.0942888 -1
119.27934 12.831513 -2.7915766 -1
119.93663 1.7375515 -3.4908643 -1
119.57984 -9.1171951 -4.1879396 -1
0.1 0.1 0.1 -1
0.1 0.1 0.1 -1
119.47778 -10.095831 4.8099556 -1
117.63573 22.65307 6.9766822 -1
119.25105 -9.196805 9.7265797 -1
117.0845 21.848322 14.624321 -1
117.6914 -9.3245211 21.489235 -1
17.641752 3.2155929 4.8049755 4
117.72076 23.266638 0.69742966 -1
119.40041 11.980889 0 -1
119.99224 1.1728228 -0.69742966 -1
119.59224 -9.7902451 -1.3594428 -1
117.6648 23.298258 3.4908643 -1
119.32901 12.352503 2.8290563 -1
119.97558 1.2145435 2.0942888 -1
119.59478 -9.7484283 1.434417 -1
0.1 0.1 0.1 -1
0.1 0.1 0.1 -1
0.1 0.1 0.1 -1
117.24776 22.896856 -11.344498 -1
117.61665 22.500408 -7.7495198 -1
119.15936 11.389787 -8.4451542 -1
119.65003 0.56384164 -9.1407118 -1
119.1385 -10.48613 -9.8008928 -1
117.60891 23.329857 -4.8848734 -1
119.26899 11.988729 -5.583735 -1
119.83041 1.1084924 -6.2803149 -1
119.39247 -9.8368273 -6.9766822 -1
117.6394 23.592089 -2.0942888 -1
119.32339 12.415072 -2.7915766 -1
119.94196 1.3188839 -3.4908643 -1
119.54729 -9.5345507 -4.1879396 -1
0.1 0.1 0.1 -1
0.1 0.1 0.1 -1
119.4418 -10.512825 4.8099556 -1
117.71408 22.242308 6.9766822 -1
119.21822 -9.6130123 9.7265797 -1
117.16005 21.439487 14.624321 -1
117.65813 -9.7352848 21.489235 -1
17.619589 3.1480458 4.795917 3
117.80125 22.855574 0.69742966 -1
119.44151 11.564032 0 -1
119.99561 0.75396454 -0.69742966 -1
119.55733 -10.207641 -1.3594428 -1
117.74541 22.887388 3.4908643 -1
119.3714 11.935892 2.8290563 -1
119.97909 0.79574311 2.0942888 -1
119.56002 -10.165833 1.434417 -1
0.1 0.1 0.1 -1
0.1 0.1 0.1 -1
0.1 0.1 0.1 -1
117.32697 22.487446 -11.344498 -1
117.69447 22.089712 -7.7495198 -1
119.19839 10.973773 -8.4451542 -1
119.65127 0.14618167 -9.1407118 -1
119.10117 -10.901937 -9.8008928 -1
117.68963 22.919184 -4.8848734 -1
119.31011 11.57233 -5.583735 -1
119.83356 0.69019938 -6.2803149 -1
119.35741 -10.253525 -6.9766822 -1
117.72103 23.181307 -2.0942888 -1
119.366 11.998481 -2.7915766 -1
119.94584 0.90020031 -3.4908643 -1
119.51328 -9.9517908 -4.1879396 -1
0.1 0.1 0.1 -1
0.1 0.1 0.1 -1
119.40438 -10.92969 4.8099556 -1
117.79101 21.831272 6.9766822 -1
119.18394 -10.029103 9.7265797 -1
117.23418 21.030392 14.624321 -1
117.62344 -10.145928 21.489235 -1
114.17465 19.988276 31.058285 -1
117.88032 22.444231 0.69742966 -1
119.48114 11.147032 0 -1
119.99751 0.33509713 -0.69742966 -1
119.52097 -10.624911 -1.3594428 -1
117.82458 22.476242 3.4908643 -1
119.41234 11.519135 2.8290563 -1
119.98113 0.37693307 2.0942888 -1
119.5238 -10.583113 1.434417 -1
0.1 0.1 0.1 -1
0.1 0.1 0.1 -1
0.1 0.1 0.1 -1
117.40475 22.077763 -11.344498 -1
117.77087 21.678747 -7.7495198 -1
119.23597 10.557627 -8.4451542 -1
119.65105 -0.27148008 -9.1407118 -1
119.06239 -11.317611 -9.8008928 -1
117.76891 22.50823 -4.8848734 -1
119.34978 11.155788 -5.583735 -1
119.83524 0.271898 -6.2803149 -1
119.32089 -10.670097 -6.9766822 -1
117.80123 22.770243 -2.0942888 -1
119.40717 11.581742 -2.7915766 -1
119.94825 0.48150572 -3.4908643 -1
119.47781 -10.368909 -4.1879396 -1
0.1 0.1 0.1 -1
0.1 0.1 0.1 -1
119.3655 -11.346423 4.8099556 -1
117.86649 21.419973 6.9766822 -1
119.1482 -10.445072 9.7265797 -1
117.30687 20.62104 14.624321 -1
117.5873 -10.556449 21.489235 -1
114.24373 19.589609 31.058285 -1
117.95795 22.032616 0.69742966 -1
119.51933 10.729897 0 -1
119.99795 -0.08377438 -0.69742966 -1
119.48315 -11.042052 -1.3594428 -1
117.90232 22.064819 3.4908643 -1
119.45182 11.102238 2.8290563 -1
119.98171 -0.04188152 2.0942888 -1
119.48614 -11.000264 1.434417 -1
0.1 0.1 0.1 -1
0.1 0.1 0.1 -1
0.1 0.1 0.1 -1
117.4811 21.667809 -11.344498 -1
117.84583 21.267517 -7.7495198 -1
119.27209 10.141351 -8.4451542 -1
119.64938 -0.68913853 -9.1407118 -1
119.02216 -11.733148 -9.8008928 -1
117.84676 22.097002 -4.8848734 -1
119.38799 10.739112 -5.583735 -1
119.83546 -0.1464067 -6.2803149 -1
119.28292 -11.08654 -6.9766822 -1
117.88 22.358902 -2.0942888 -1
119.44686 11.164864 -2.7915766 -1
119.9492 0.062805258 -3.4908643 -1
119.44089 -10.785901 -4.1879396 -1
0.1 0.1 0.1 -1
0.1 0.1 0.1 -1
119.32516 -11.763018 4.8099556 -1
117.94054 21.008411 6.9766822 -1
119.11102 -10.860913 9.7265797 -1
117.37814 20.211437 14.624321 -1
117.54974 -10.966841 21.489235 -1
114.31142 19.190706 31.058285 -1
118.03413 21.620731 0.69742966 -1
119.55605 10.312632 0 -1
119.99692 -0.50264484 -0.69742966 -1
119.44389 -11.459059 -1.3594428 -1
117.97862 21.65313 3.4908643 -1
119.48985 10.685205 2.8290563 -1
119.98084 -0.46069562 2.0942888 -1
119.44701 -11.417281 1.434417 -1
0.1 0.1 0.1 -1
0.1 0.1 0.1 -1
0.1 0.1 0.1 -1
117.55602 21.257591 -11.344498 -1
117.91934 20.85603 -7.7495198 -1
119.30677 9.7249517 -8.4451542 -1
119.64624 -1.1067886 -9.1407118 -1
118.98048 -12.14854 -9.8008928 -1
117.92318 21.685507 -4.8848734 -1
119.42475 10.322305 -5.583735 -1
119.83421 -0.5647096 -6.2803149 -1
119.24349 -11.502848 -6.9766822 -1
117.95733 21.947287 -2.0942888 -1
119.48511 10.747848 -2.7915766 -1
119.94868 -0.35589597 -3.4908643 -1
119.40251 -11.202763 -4.1879396 -1
0.1 0.1 0.1 -1
0.1 0.1 0.1 -1
119.28338 -12.179468 4.8099556 -1
118.01316 20.596594 6.9766822 -1
119.07238 -11.276622 9.7265797 -1
117.44798 19.801588 14.624321 -1
117.51074 -11.3771 21.489235 -1
114.37771 18.791567 31.058285 -1
118.10889 21.208584 0.69742966 -1
119.59132 9.8952398 0 -1
119.99444 -0.92150921 -0.69742966 -1
119.40316 -11.875926 -1.3594428 -1
118.05349 21.241175 3.4908643 -1
119.52641 10.268044 2.8290563 -1
119.9785 -0.87950408 2.0942888 -1
119.40643 -11.83416 1.434417 -1
0.1 0.1 0.1 -1
0.1 0.1 0.1 -1
0.1 0.1 0.1 -1
117.6295 20.847115 -11.344498 -1
117.99142 20.444286 -7.7495198 -1
119.33999 9.3084345 -8.4451542 -1
119.64165 -1.5244251 -9.1407118 -1
118.93736 -12.563787 -9.8008928 -1
117.99816 21.273745 -4.8848734 -1
119.46006 9.9053717 -5.583735 -1
119.83151 -0.98300564 -6.2803149 -1
119.20261 -11.919015 -6.9766822 -1
118.03322 21.535406 -2.0942888 -1
119.5219 10.330702 -2.7915766 -1
119.94672 -0.77459282 -3.4908643 -1
119.36268 -11.619487 -4.1879396 -1
0.1 0.1 0.1 -1
0.1 0.1 0.1 -1
119.24014 -12.595771 4.8099556 -1
118.08434 20.184526 6.9766822 -1
119.03229 -11.692193 9.7265797 -1
117.51638 19.391499 14.624321 -1
117.47031 -11.787219 21.489235 -1
114.4426 18.3922 31.058285 -1
118.1822 20.796177 0.69742966 -1
119.62514 9.4777279 0 -1
119.99049 -1.3403623 -0.69742966 -1
119.36098 -12.292648 -1.3594428 -1
118.12691 20.828962 3.4908643 -1
119.56153 9.8507557 2.8290563 -1
119.9747 -1.2983018 2.0942888 -1
119.3644 -12.250894 1.434417 -1
0.1 0.1 0.1 -1
0.1 0.1 0.1 -1
0.1 0.1 0.1 -1
117.70156 20.436384 -11.344498 -1
118.06207 20.032295 -7.7495198 -1
119.37175 8.8918028 -8.4451542 -1
119.6356 -1.9420432 -9.1407118 -1
118.89277 -12.978879 -9.8008928 -1
118.0717 20.861725 -4.8848734 -1
119.4939 9.4883184 -5.583735 -1
119.82735 -1.4012897 -6.2803149 -1
119.16028 -12.335037 -6.9766822 -1
118.10767 21.123262 -2.0942888 -1
119.55723 9.9134293 -2.7915766 -1
119.94328 -1.1932803 -3.4908643 -1
119.32139 -12.036069 -4.1879396 -1
0.1 0.1 0.1 -1
0.1 0.1 0.1 -1
119.19544 -13.01192 4.8099556 -1
118.15408 19.772211 6.9766822 -1
118.99075 -12.107622 9.7265797 -1
117.58335 18.981171 14.624321 -1
117.42845 -12.197195 21.489235 -1
114.50611 17.992609 31.058285 -1
118.25407 20.383518 0.69742966 -1
119.65749 9.0601006 0 -1
119.98508 -1.7591991 -0.69742966 -1
119.31734 -12.709222 -1.3594428 -1
118.19891 20.416496 3.4908643 -1
119.59518 9.4333477 2.8290563 -1
119.96944 -1.7170838 2.0942888 -1
119.3209 -12.667479 1.434417 -1
0.1 0.1 0.1 -1
0.1 0.1 0.1 -1
0.1 0.1 0.1 -1
117.77218 20.025404 -11.344498 -1
118.13128 19.62006 -7.7495198 -1
119.40206 8.4750643 -8.4451542 -1
119.62809 -2.3596375 -9.1407118 -1
118.84674 -13.393813 -9.8008928 -1
118.1438 20.449451 -4.8848734 -1
119.5263 9.0711489 -5.583735 -1
119.82173 -1.8195567 -6.2803149 -1
119.1165 -12.750909 -6.9766822 -1
118.18069 20.710861 -2.0942888 -1
119.5911 9.4960365 -2.7915766 -1
119.93839 -1.6119531 -3.4908643 -1
119.27865 -12.452505 -4.1879396 -1
0.1 0.1 0.1 -1
0.1 0.1 0.1 -1
119.15865 -13.344726 4.8099556 -1
118.20883 19.442186 6.9766822 -1
118.95647 -12.439859 9.7265797 -1
117.63589 18.652742 14.624321 -1
117.39394 -12.525069 21.489235 -1
114.55591 17.672777 31.058285 -1
118.31053 20.053211 0.69742966 -1
119.68232 8.7259197 0 -1
119.9797 -2.0942533 -0.69742966 -1
119.28139 -13.042368 -1.3594428 -1
118.25546 20.086342 3.4908643 -1
119.62106 9.0993385 2.8290563 -1
119.96417 -2.0520945 2.0942888 -1
119.28506 -13.000636 1.434417 -1
0.1 0.1 0.1 -1
0.1 0.1 0.1 -1
0.1 0.1 0.1 -1
117.82764 19.696444 -11.344498 -1
118.18561 19.290098 -7.7495198 -1
119.42526 8.1415977 -8.4451542 -1
119.62103 -2.6936924 -9.1407118 -1
118.80888 -13.725643 -9.8008928 -1
118.20045 20.119452 -4.8848734 -1
119.55116 8.7373333 -5.583735 -1
119.81618 -2.1541545 -6.2803149 -1
119.08043 -13.083495 -6.9766822 -1
118.23806 20.380758 -2.0942888 -1
119.61716 9.1620378 -2.7915766 -1
119.93341 -1.9468776 -3.4908643 -1
119.24341 -12.785545 -4.1879396 -1
0.1 0.1 0.1 -1
0.1 0.1 0.1 -1
119.11134 -13.760585 4.8099556 -1
118.27598 19.029442 6.9766822 -1
118.91233 -12.85502 9.7265797 -1
117.70029 18.242002 14.624321 -1
117.34949 -12.934774 21.489235 -1
114.6169 17.272795 31.058285 -1
118.37981 19.640108 0.69742966 -1
119.71205 8.3080969 0 -1
119.97166 -2.5130479 -0.69742966 -1
119.23513 -13.458658 -1.3594428 -1
118.32485 19.673431 3.4908643 -1
119.6521 8.6817284 2.8290563 -1
119.95628 -2.4708352 2.0942888 -1
119.23895 -13.416939 1.434417 -1
0.1 0.1 0.1 -1
0.1 0.1 0.1 -1
0.1 0.1 0.1 -1
117.89568 19.285028 -11.344498 -1
118.25222 18.877438 -7.7495198 -1
119.45296 7.7246761 -8.4451542 -1
119.6109 -3.1112313 -9.1407118 -1
118.76024 -14.14028 -9.8008928 -1
118.26996 19.706734 -4.8848734 -1
119.58093 8.3199692 -5.583735 -1
119.80793 -2.5723779 -6.2803149 -1
119.03403 -13.499084 -6.9766822 -1
118.30848 19.967905 -2.0942888 -1
119.64841 8.744441 -2.7915766 -1
119.92589 -2.3655114 -3.4908643 -1
119.19805 -13.201704 -4.1879396 -1
0.1 0.1 0.1 -1
0.1 0.1 0.1 -1
119.06258 -14.176277 4.8099556 -1
118.34168 18.616467 6.9766822 -1
118.86673 -13.270022 9.7265797 -1
117.76325 17.831041 14.624321 -1
117.30363 -13.344322 21.489235 -1
114.67649 16.872602 31.058285 -1
118.44765 19.226767 0.69742966 -1
119.74033 7.8901734 0 -1
119.96215 -2.9318118 -0.69742966 -1
119.18742 -13.874784 -1.3594428 -1
118.3928 19.260281 3.4908643 -1
119.68167 8.2640114 2.8290563 -1
119.94692 -2.8895457 2.0942888 -1
119.19139 -13.833079 1.434417 -1
0.1 0.1 0.1 -1
0.1 0.1 0.1 -1
0.1 0.1 0.1 -1
117.96227 18.873379 -11.344498 -1
118.31739 18.464544 -7.7495198 -1
119.47919 7.3076606 -8.4451542 -1
119.59931 -3.5287323 -9.1407118 -1
118.71016 -14.554744 -9.8008928 -1
118.33803 19.293774 -4.8848734 -1
119.60925 7.902503 -5.583735 -1
119.79823 -2.9905701 -6.2803149 -1
118.98618 -13.914508 -6.9766822 -1
118.37746 19.55481 -2.0942888 -1
119.67821 8.3267365 -2.7915766 -1
119.9169 -2.7841165 -3.4908643 -1
119.15125 -13.617702 -4.1879396 -1
0.1 0.1 0.1 -1
0.1 0.1 0.1 -1
119.01237 -14.591797 4.8099556 -1
118.40594 18.203262 6.9766822 -1
118.81969 -13.684864 9.7265797 -1
117.82478 17.419863 14.624321 -1
117.25633 -13.753707 21.489235 -1
114.73469 16.472204 31.058285 -1
118.51404 18.813189 0.69742966 -1
119.76714 7.4721537 0 -1
119.95119 -3.3505402 -0.69742966 -1
119.13827 -14.290742 -1.3594428 -1
118.45931 18.846895 3.4908643 -1
119.70979 7.8461943 2.8290563 -1
119.9361 -3.3082209 2.0942888 -1
119.14238 -14.24905 1.434417 -1
0.1 0.1 0.1 -1
0.1 0.1 0.1 -1
0.1 0.1 0.1 -1
118.02744 18.461498 -11.344498 -1
118.38113 18.051428 -7.7495198 -1
119.50397 6.8905559 -8.4451542 -1
119.58627 -3.9461904 -9.1407118 -1
118.65863 -14.969031 -9.8008928 -1
118.40466 18.880579 -4.8848734 -1
119.63611 7.4849405 -5.583735 -1
119.78706 -3.4087255 -6.2803149 -1
118.93689 -14.329762 -6.9766822 -1
118.445 19.141476 -2.0942888 -1
119.70654 7.9089308 -2.7915766 -1
119.90645 -3.2026877 -3.4908643 -1
119.10298 -14.033535 -4.1879396 -1
0.1 0.1 0.1 -1
0.1 0.1 0.1 -1
118.96071 -15.007139 4.8099556 -1
118.46877 17.789839 6.9766822 -1
118.77119 -14.099539 9.7265797 -1
117.88486 17.008471 14.624321 -1
117.20761 -14.162924 21.489235 -1
114.79149 16.071604 31.058285 -1
118.57899 18.399384 0.69742966 -1
119.79249 7.0540428 0 -1
119.93876 -3.7692275 -0.69742966 -1
119.08765 -14.706525 -1.3594428 -1
118.52438 18.433281 3.4908643 -1
119.73645 7.4282813 2.8290563 -1
119.92383 -3.726856 2.0942888 -1
119.09192 -14.664848 1.434417 -1
0.1 0.1 0.1 -1
0.1 0.1 0.1 -1
0.1 0.1 0.1 -1
118.09116 18.049395 -11.344498 -1
118.44341 17.63809 -7.7495198 -1
119.5273 6.4733672 -8.4451542 -1
119.57176 -4.3636003 -9.1407118 -1
118.60566 -15.383136 -9.8008928 -1
118.46983 18.467155 -4.8848734 -1
119.66151 7.067287 -5.583735 -1
119.77442 -3.8268397 -6.2803149 -1
118.88615 -14.744842 -6.9766822 -1
118.51109 18.727909 -2.0942888 -1
119.73342 7.4910288 -2.7915766 -1
119.89454 -3.6212199 -3.4908643 -1
119.05328 -14.449197 -4.1879396 -1
0.1 0.1 0.1 -1
0.1 0.1 0.1 -1
118.9076 -15.422297 4.8099556 -1
118.53014 17.376196 6.9766822 -1
118.72125 -14.514042 9.7265797 -1
117.94352 16.596872 14.624321 -1
117.15746 -14.571968 21.489235 -1
114.84689 15.67081 31.058285 -1
118.64249 17.985353 0.69742966 -1
119.81638 6.6358457 0 -1
119.92487 -4.1878691 -0.69742966 -1
119.0356 -15.122129 -1.3594428 -1
118.588 18.019442 3.4908643 -1
119.76165 7.0102777 2.8290563 -1
119.91009 -4.1454453 2.0942888 -1
119.04 -15.080467 1.434417 -1
0.1 0.1 0.1 -1
0.1 0.1 0.1 -1
0.1 0.1 0.1 -1
118.15344 17.637068 -11.344498 -1
118.50426 17.224539 -7.7495198 -1
119.54916 6.0560994 -8.4451542 -1
119.5558 -4.7809572 -9.1407118 -1
118.55124 -15.797053 -9.8008928 -1
118.53358 18.053505 -4.8848734 -1
119.68544 6.6495471 -5.583735 -1
119.76034 -4.2449069 -6.2803149 -1
118.83395 -15.159742 -6.9766822 -1
118.57574 18.314116 -2.0942888 -1
119.75883 7.0730357 -2.7915766 -1
119.88117 -4.0397077 -3.4908643 -1
119.00211 -14.864682 -4.1879396 -1
0.1 0.1 0.1 -1
0.1 0.1 0.1 -1
118.85304 -15.837269 4.8099556 -1
118.59007 16.962343 6.9766822 -1
118.66987 -14.928368 9.7265797 -1
118.00073 16.185072 14.624321 -1
117.10588 -14.980836 21.489235 -1
114.90089 15.269824 31.058285 -1
118.70455 17.571104 0.69742966 -1
119.83881 6.2175679 0 -1
119.90952 -4.6064591 -0.69742966 -1
118.98209 -15.537549 -1.3594428 -1
118.65018 17.605383 3.4908643 -1
119.78539 6.5921888 2.8290563 -1
119.89489 -4.5639844 2.0942888 -1
118.98663 -15.495902 1.434417 -1
0.1 0.1 0.1 -1
0.1 0.1 0.1 -1
0.1 0.1 0.1 -1
118.21429 17.224529 -11.344498 -1
118.56367 16.810776 -7.7495198 -1
119.56958 5.6387582 -8.4451542 -1
119.53838 -5.1982555 -9.1407118 -1
118.49537 -16.210777 -9.8008928 -1
118.59587 17.639637 -4.8848734 -1
119.70792 6.2317266 -5.583735 -1
119.74479 -4.6629229 -6.2803149 -1
118.78031 -15.574458 -6.9766822 -1
118.63895 17.900097 -2.0942888 -1
119.7828 6.6549563 -2.7915766 -1
119.86634 -4.4581466 -3.4908643 -1
118.9495 -15.279986 -4.1879396 -1
0.1 0.1 0.1 -1
0.1 0.1 0.1 -1
118.79704 -16.252047 4.8099556 -1
118.64856 16.548283 6.9766822 -1
118.61703 -15.342512 9.7265797 -1
118.05651 15.773073 14.624321 -1
117.05287 -15.38952 21.489235 -1
114.9535 14.868651 31.058285 -1
118.76516 17.156641 0.69742966 -1
119.85979 5.7992148 0 -1
119.89272 -5.0249934 -0.69742966 -1
118.92712 -15.952779 -1.3594428 -1
118.71091 17.191109 3.4908643 -1
119.80767 6.1740198 2.8290563 -1
119.87823 -4.9824681 2.0942888 -1
118.93182 -15.911149 1.434417 -1
0.1 0.1 0.1 -1
0.1 0.1 0.1 -1
0.1 0.1 0.1 -1
118.27369 16.811779 -11.344498 -1
118.62162 16.396809 -7.7495198 -1
119.58853 5.2213483 -8.4451542 -1
119.51951 -5.6154909 -9.1407118 -1
118.43806 -16.624306 -9.8008928 -1
118.65672 17.225552 -4.8848734 -1
119.72895 5.8138299 -5.583735 -1
119.72778 -5.0808816 -6.2803149 -1
118.72522 -15.988983 -6.9766822 -1
118.70071 17.485861 -2.0942888 -1
119.8053 6.2367954 -2.7915766 -1
119.85004 -4.8765311 -3.4908643 -1
118.89544 -15.695105 -4.1879396 -1
0.1 0.1 0.1 -1
0.1 0.1 0.1 -1
118.73958 -16.666626 4.8099556 -1
118.7056 16.134022 6.9766822 -1
118.56276 -15.756469 9.7265797 -1
118.11085 15.360884 14.624321 -1
116.99844 -15.798018 21.489235 -1
115.0047 14.467299 31.058285 -1
118.82433 16.741968 0.69742966 -1
119.8793 5.3807907 0 -1
119.87444 -5.4434667 -0.69742966 -1
118.87071 -16.367815 -1.3594428 -1
118.7702 16.776625 3.4908643 -1
119.82849 5.7557755 2.8290563 -1
119.8601 -5.4008908 2.0942888 -1
118.87556 -16.326202 1.434417 -1
0.1 0.1 0.1 -1
0.1 0.1 0.1 -1
0.1 0.1 0.1 -1
118.33166 16.398825 -11.344498 -1
118.67814 15.982642 -7.7495198 -1
119.60603 4.8038745 -8.4451542 -1
119.49918 -6.0326576 -9.1407118 -1
118.37931 -17.03763 -9.8008928 -1
118.71613 16.811258 -4.8848734 -1
119.74851 5.3958626 -5.583735 -1
119.70932 -5.4987788 -6.2803149 -1
118.66869 -16.403315 -6.9766822 -1
118.76102 17.071411 -2.0942888 -1
119.82634 5.8185592 -2.7915766 -1
119.83229 -5.2948561 -3.4908643 -1
118.83993 -16.110031 -4.1879396 -1
0.1 0.1 0.1 -1
0.1 0.1 0.1 -1
118.68068 -17.081003 4.8099556 -1
118.76119 15.719563 6.9766822 -1
118.50703 -16.170235 9.7265797 -1
118.16375 14.948506 14.624321 -1
116.94258 -16.206322 21.489235 -1
115.0545 14.065769 31.058285 -1
118.88204 16.327093 0.69742966 -1
119.89735 4.9623013 0 -1
119.85471 -5.8618731 -0.69742966 -1
118.81286 -16.782652 -1.3594428 -1
118.82803 16.361938 3.4908643 -1
119.84785 5.3374605 2.8290563 -1
119.84052 -5.8192477 2.0942888 -1
118.81784 -16.741055 1.434417 -1
0.1 0.1 0.1 -1
0.1 0.1 0.1 -1
0.1 0.1 0.1 -1
118.38818 15.98567 -11.344498 -1
118.7332 15.568281 -7.7495198 -1
119.62207 4.386342 -8.4451542 -1
119.47739 -6.4497509 -9.1407118 -1
118.31912 -17.450747 -9.8008928 -1
118.77409 16.396759 -4.8848734 -1
119.76662 4.9778295 -5.583735 -1
119.68939 -5.9166088 -6.2803149 -1
118.6107 -16.817446 -6.9766822 -1
118.81989 16.656754 -2.0942888 -1
119.84592 5.4002519 -2.7915766 -1
119.81308 -5.7131166 -3.4908643 -1
118.78297 -16.524763 -4.1879396 -1
0.1 0.1 0.1 -1
0.1 0.1 0.1 -1
118.62033 -17.495173 4.8099556 -1
118.81535 15.304914 6.9766822 -1
118.44987 -16.583803 9.7265797 -1
118.21521 14.535947 14.624321 -1
116.8853 -16.614429 21.489235 -1
115.10289 13.664068 31.058285 -1
118.93831 15.912017 0.69742966 -1
119.91395 4.5437508 0 -1
119.83352 -6.2802086 -0.69742966 -1
118.75355 -17.197283 -1.3594428 -1
118.88442 15.947051 3.4908643 -1
119.86575 4.9190812 2.8290563 -1
119.81948 -6.2375336 2.0942888 -1
118.75868 -17.155704 1.434417 -1
0.1 0.1 0.1 -1
0.1 0.1 0.1 -1
0.1 0.1 0.1 -1
118.44326 15.572321 -11.344498 -1
118.78683 15.15373 -7.7495198 -1
119.63665 3.9687564 -8.4451542 -1
119.45415 -6.8667655 -9.1407118 -1
118.25748 -17.863651 -9.8008928 -1
118.8306 15.982059 -4.8848734 -1
119.78326 4.5597353 -5.583735 -1
119.66801 -6.3343668 -6.2803149 -1
118.55128 -17.231371 -6.9766822 -1
118.87731 16.241894 -2.0942888 -1
119.86404 4.9818783 -2.7915766 -1
119.7924 -6.1313076 -3.4908643 -1
118.72456 -16.939291 -4.1879396 -1
0.1 0.1 0.1 -1
0.1 0.1 0.1 -1
118.55854 -17.909128 4.8099556 -1
118.86804 14.890078 6.9766822 -1
118.39126 -16.997169 9.7265797 -1
118.26523 14.12321 14.624321 -1
116.82659 -17.022333 21.489235 -1
115.14989 13.262201 31.058285 -1
118.99313 15.496748 0.69742966 -1
119.92908 4.1251454 0 -1
119.81087 -6.6984673 -0.69742966 -1
118.69279 -17.611706 -1.3594428 -1
118.93936 15.53197 3.4908643 -1
119.88219 4.5006413 2.8290563 -1
119.79697 -6.6557436 2.0942888 -1
118.69807 -17.570145 1.434417 -1
0.1 0.1 0.1 -1
0.1 0.1 0.1 -1
0.1 0.1 0.1 -1
118.49689 15.158782 -11.344498 -1
118.839 14.738995 -7.7495198 -1
119.64977 3.5511224 -8.4451542 -1
119.42946 -7.2836962 -9.1407118 -1
118.1944 -18.276339 -9.8008928 -1
118.88567 15.567166 -4.8848734 -1
119.79845 4.1415863 -5.583735 -1
119.64517 -6.7520475 -6.2803149 -1
118.49041 -17.645088 -6.9766822 -1
118.93328 15.826835 -2.0942888 -1
119.8807 4.5634446 -2.7915766 -1
119.77028 -6.5494237 -3.4908643 -1
118.66471 -17.353615 -4.1879396 -1
0.1 0.1 0.1 -1
0.1 0.1 0.1 -1
118.4953 -18.322866 4.8099556 -1
118.9193 14.47506 6.9766822 -1
118.33121 -17.410328 9.7265797 -1
118.3138 13.710301 14.624321 -1
116.76646 -17.430031 21.489235 -1
115.19548 12.860172 31.058285 -1
119.04649 15.08129 0.69742966 -1
119.94274 3.7064898 0 -1
119.78676 -7.1166449 -0.69742966 -1
118.63059 -18.025913 -1.3594428 -1
118.99285 15.116699 3.4908643 -1
119.89717 4.0821471 2.8290563 -1
119.77301 -7.0738726 2.0942888 -1
118.63602 -17.984371 1.434417 -1
0.1 0.1 0.1 -1
0.1 0.1 0.1 -1
0.1 0.1 0.1 -1
118.54909 14.745058 -11.344498 -1
118.88972 14.324079 -7.7495198 -1
119.66145 3.1334453 -8.4451542 -1
119.40331 -7.7005386 -9.1407118 -1
118.12989 -18.688803 -9.8008928 -1
118.93928 15.152082 -4.8848734 -1
119.81218 3.7233863 -5.583735 -1
119.62087 -7.1696458 -6.2803149 -1
118.42809 -18.05859 -6.9766822 -1
118.9878 15.411584 -2.0942888 -1
119.8959 4.1449552 -2.7915766 -1
119.74668 -6.9674602 -3.4908643 -1
118.60341 -17.767725 -4.1879396 -1
0.1 0.1 0.1 -1
0.1 0.1 0.1 -1
118.43063 -18.73638 4.8099556 -1
118.96909 14.059866 6.9766822 -1
118.26971 -17.823275 9.7265797 -1
118.36095 13.297225 14.624321 -1
116.70491 -17.837515 21.489235 -1
115.23967 12.457987 31.058285 -1
119.09841 14.665648 0.69742966 -1
119.95495 3.2877889 0 -1
119.76118 -7.5347352 -0.69742966 -1
118.56695 -18.439901 -1.3594428 -1
119.0449 14.701244 3.4908643 -1
119.91069 3.6636031 2.8290563 -1
119.74759 -7.4919152 2.0942888 -1
118.57252 -18.39838 1.434417 -1
0.1 0.1 0.1 -1
0.1 0.1 0.1 -1
0.1 0.1 0.1 -1
118.59983 14.331155 -11.344498 -1
118.939 13.908989 -7.7495198 -1
119.67165 2.7157297 -8.4451542 -1
119.37569 -8.1172867 -9.1407118 -1
118.06393 -19.101038 -9.8008928 -1
118.99145 14.736814 -4.8848734 -1
119.82445 3.305141 -5.583735 -1
119.59512 -7.5871568 -6.2803149 -1
118.36433 -18.47187 -6.9766822 -1
119.04087 14.996145 -2.0942888 -1
119.90964 3.7264149 -2.7915766 -1
119.72163 -7.3854113 -3.4908643 -1
118.54066 -18.181622 -4.1879396 -1
0.1 0.1 0.1 -1
0.1 0.1 0.1 -1
118.3645 -19.149666 4.8099556 -1
119.01745 13.644501 6.9766822 -1
118.20677 -18.236004 9.7265797 -1
118.40664 12.883987 14.624321 -1
116.64194 -18.244783 21.489235 -1
115.28246 12.055649 31.058285 -1
119.14888 14.249828 0.69742966 -1
119.9657 2.8690479 0 -1
119.73415 -7.9527335 -0.69742966 -1
118.50186 -18.853666 -1.3594428 -1
119.09549 14.285611 3.4908643 -1
119.92275 3.2450142 2.8290563 -1
119.72071 -7.9098668 2.0942888 -1
118.50758 -18.812162 1.434417 -1
0.1 0.1 0.1 -1
0.1 0.1 0.1 -1
0.1 0.1 0.1 -1
118.64913 13.917076 -11.344498 -1
118.98682 13.49373 -7.7495198 -1
119.6804 2.297981 -8.4451542 -1
119.34663 -8.5339365 -9.1407118 -1
117.99654 -19.513042 -9.8008928 -1
119.04216 14.321367 -4.8848734 -1
119.83525 2.8868556 -5.583735 -1
119.56791 -8.0045757 -6.2803149 -1
118.29913 -18.884926 -6.9766822 -1
119.09249 14.580523 -2.0942888 -1
119.92191 3.3078294 -2.7915766 -1
119.69512 -7.8032727 -3.4908643 -1
118.47648 -18.595295 -4.1879396 -1
0.1 0.1 0.1 -1
0.1 0.1 0.1 -1
118.29694 -19.562717 4.8099556 -1
119.06435 13.22897 6.9766822 -1
118.1424 -18.648512 9.7265797 -1
118.45089 12.470592 14.624321 -1
116.57754 -18.651829 21.489235 -1
115.32384 11.653165 31.058285 -1
119.1979 13.833834 0.69742966 -1
119.97498 2.4502721 0 -1
119.70567 -8.370635 -0.69742966 -1
118.43533 -19.267199 -1.3594428 -1
119.14463 13.869802 3.4908643 -1
119.93335 2.826386 2.8290563 -1
119.69237 -8.3277216 2.0942888 -1
118.44118 -19.225718 1.434417 -1
0.1 0.1 0.1 -1
0.1 0.1 0.1 -1
0.1 0.1 0.1 -1
118.69699 13.502829 -11.344498 -1
119.0332 13.078306 -7.7495198 -1
119.68769 1.8802046 -8.4451542 -1
119.31612 -8.9504824 -9.1407118 -1
117.92771 -19.924809 -9.8008928 -1
119.09143 13.905746 -4.8848734 -1
119.8446 2.4685347 -5.583735 -1
119.53924 -8.4218969 -6.2803149 -1
118.23249 -19.297752 -6.9766822 -1
119.14266 14.164724 -2.0942888 -1
119.93273 2.8892038 -2.7915766 -1
119.66716 -8.2210398 -3.4908643 -1
118.41085 -19.008741 -4.1879396 -1
0.1 0.1 0.1 -1
0.1 0.1 0.1 -1
118.22793 -19.975533 4.8099556 -1
119.1098 12.813276 6.9766822 -1
118.07658 -19.060793 9.7265797 -1
118.4937 12.057046 14.624321 -1
116.51172 -19.058645 21.489235 -1
115.36381 11.250539 31.058285 -1
119.24546 13.417671 0.69742966 -1
119.9828 2.0314662 0 -1
119.67571 -8.788435 -0.69742966 -1
118.36735 -19.680498 -1.3594428 -1
119.19231 13.453826 3.4908643 -1
119.94248 2.4077232 2.8290563 -1
119.66257 -8.7454758 2.0942888 -1
118.37335 -19.639036 1.434417 -1
0.1 0.1 0.1 -1
0.1 0.1 0.1 -1
0.1 0.1 0.1 -1
118.7434 13.088417 -11.344498 -1
119.07812 12.662723 -7.7495198 -1
119.69353 1.4624051 -8.4451542 -1
119.28415 -9.3669186 -9.1407118 -1
117.85744 -20.336332 -9.8008928 -1
119.13924 13.489954 -4.8848734 -1
119.85249 2.050184 -5.583735 -1
119.50911 -8.8391151 -6.2803149 -1
118.16441 -19.710342 -6.9766822 -1
119.19138 13.748753 -2.0942888 -1
119.94209 2.4705427 -2.7915766 -1
119.63773 -8.6387053 -3.4908643 -1
118.34377 -19.421957 -4.1879396 -1
0.1 0.1 0.1 -1
0.1 0.1 0.1 -1
118.15748 -20.388103 4.8099556 -1
119.15381 12.397428 6.9766822 -1
118.00933 -19.472841 9.7265797 -1
118.53506 11.643353 14.624321 -1
116.44448 -19.465231 21.489235 -1
115.40237 10.847775 31.058285 -1
119.29157 13.001346 0.69742966 -1
119.98917 1.6126357 0 -1
119.64431 -9.2061281 -0.69742966 -1
118.29794 -20.093557 -1.3594428 -1
119.23856 13.037685 3.4908643 -1
