# .PCD v0.7 - Point Cloud Data file format
VERSION 0.7
FIELDS x y z intensity
SIZE 4 4 4 4
TYPE F F F F
COUNT 1 1 1 1
WIDTH 1582
HEIGHT 1
VIEWPOINT 0 0 0 1 0 0 0
POINTS 1582
DATA ascii
92.037186 76.845917 -4.8848734 -1
98.930008 67.68808 -5.583735 -1
104.63769 58.408146 -6.2803149 -1
109.49947 48.592094 -6.9766822 -1
91.938248 77.090675 -2.0942888 -1
98.773407 68.088333 -2.7915766 -1
104.63474 58.646263 -3.4908643 -1
109.49046 48.931591 -4.1879396 -1
0.1 0.1 0.1 -1
0.1 0.1 0.1 -1
109.86678 48.022449 4.8099556 -1
0.98827475 0.81004632 0.074417949 9
4.0373011 1.8000557 0.35947818 45
1.0681732 0.86529833 0.16878904 16
10.509554 4.6593876 2.0925143 65
90.371941 72.583031 31.058285 -1
92.433319 76.521858 0.69742966 -1
99.284973 67.398026 0 -1
104.95259 58.17617 -0.69742966 -1
109.82189 48.345669 -1.3594428 -1
92.369057 76.52301 3.4908643 -1
99.045212 67.690788 2.8290563 -1
104.91807 58.204922 2.0942888 -1
109.80421 48.383652 1.434417 -1
0.1 0.1 0.1 -1
0.1 0.1 0.1 -1
0.1 0.1 0.1 -1
92.193504 75.971443 -11.344498 -1
92.706688 75.798515 -7.7495198 -1
99.354515 66.763466 -8.4451542 -1
104.9417 57.477711 -9.1407118 -1
109.75433 47.517685 -9.8008928 -1
92.304863 76.524178 -4.8848734 -1
99.16568 67.342339 -5.583735 -1
104.84093 58.042538 -6.2803149 -1
109.66842 48.209576 -6.9766822 -1
92.206787 76.769287 -2.0942888 -1
99.010475 67.743134 -2.7915766 -1
104.83882 58.280663 -3.4908643 -1
109.6606 48.549099 -4.1879396 -1
0.1 0.1 0.1 -1
0.1 0.1 0.1 -1
110.03374 47.638653 4.8099556 -1
92.915276 75.617966 6.9766822 -1
4.04356 1.785952 0.35947818 47
1.0595858 0.85223341 0.166961 28
10.593313 4.6523447 2.1059451 66
90.624748 72.267128 31.058285 -1
92.699867 76.198738 0.69742966 -1
99.51963 67.051048 0 -1
105.15503 57.809464 -0.69742966 -1
109.98998 47.962025 -1.3594428 -1
92.635612 76.200119 3.4908643 -1
99.280891 67.344643 2.8290563 -1
105.12061 57.838333 2.0942888 -1
109.97243 48.000069 1.434417 -1
0.1 0.1 0.1 -1
0.1 0.1 0.1 -1
0.1 0.1 0.1 -1
92.458138 75.649162 -11.344498 -1
92.970711 75.474449 -7.7495198 -1
99.58696 66.416245 -8.4451542 -1
105.14169 57.111046 -9.1407118 -1
109.91953 47.134281 -9.8008928 -1
92.571419 76.201508 -4.8848734 -1
99.400146 66.995773 -5.583735 -1
105.0429 57.67622 -6.2803149 -1
109.83604 47.826466 -6.9766822 -1
92.474197 76.446953 -2.0942888 -1
99.246338 67.39711 -2.7915766 -1
105.04162 57.914349 -3.4908643 -1
109.8294 48.166016 -4.1879396 -1
0.1 0.1 0.1 -1
0.1 0.1 0.1 -1
110.19936 47.254272 4.8099556 -1
93.178665 75.293175 6.9766822 -1
4.0497694 1.7718265 0.35947818 47
1.0509205 0.83923912 0.16513295 35
10.67264 4.6428108 2.1184804 59
90.876457 71.950348 31.058285 -1
92.965286 75.874687 0.69742966 -1
99.753075 66.703255 0 -1
105.35618 57.442051 -0.69742966 -1
110.15673 47.577797 -1.3594428 -1
92.901031 75.876297 3.4908643 -1
99.515366 66.997681 2.8290563 -1
105.32185 57.471043 2.0942888 -1
110.13931 47.615898 1.434417 -1
0.1 0.1 0.1 -1
0.1 0.1 0.1 -1
0.1 0.1 0.1 -1
92.721634 75.325966 -11.344498 -1
93.233597 75.14946 -7.7495198 -1
99.818184 66.068214 -8.4451542 -1
105.34041 56.743683 -9.1407118 -1
110.08339 46.750301 -9.8008928 -1
92.836853 75.877914 -4.8848734 -1
99.6334 66.648392 -5.583735 -1
105.24359 57.3092 -6.2803149 -1
110.00231 47.442776 -6.9766822 -1
92.740486 76.123695 -2.0942888 -1
99.480995 67.05027 -2.7915766 -1
105.24314 57.547333 -3.4908643 -1
109.99686 47.782345 -4.1879396 -1
0.1 0.1 0.1 -1
0.1 0.1 0.1 -1
110.36363 46.869316 4.8099556 -1
93.440926 74.967461 6.9766822 -1
4.0559297 1.7576793 0.35947818 47
1.046066 0.82939905 0.16391426 43
10.761064 4.636673 2.1328065 60
91.127052 71.63269 31.058285 -1
93.229576 75.549721 0.69742966 -1
99.985306 66.354645 0 -1
105.55605 57.07394 -0.69742966 -1
110.32214 47.192989 -1.3594428 -1
93.165321 75.551544 3.4908643 -1
99.748619 66.649895 2.8290563 -1
105.52183 57.10305 2.0942888 -1
110.30486 47.231152 1.434417 -1
0.1 0.1 0.1 -1
0.1 0.1 0.1 -1
0.1 0.1 0.1 -1
92.984009 75.001846 -11.344498 -1
93.495346 74.823555 -7.7495198 -1
100.0482 65.719383 -8.4451542 -1
105.53784 56.375633 -9.1407118 -1
110.2459 46.365753 -9.8008928 -1
93.101151 75.553391 -4.8848734 -1
99.865433 66.300201 -5.583735 -1
105.44299 56.941483 -6.2803149 -1
110.16725 47.058506 -6.9766822 -1
93.005638 75.799507 -2.0942888 -1
99.714439 66.702606 -2.7915766 -1
105.44337 57.179615 -3.4908643 -1
110.16298 47.398094 -4.1879396 -1
0.1 0.1 0.1 -1
0.1 0.1 0.1 -1
110.52657 46.483791 4.8099556 -1
93.702042 74.640831 6.9766822 -1
4.0620403 1.7435108 0.35947818 42
1.0528543 0.82881224 0.16452362 47
10.849574 4.6299739 2.1471329 56
18.743614 14.628318 6.370831 3
93.492722 75.223824 0.69742966 -1
100.21632 66.005226 0 -1
105.75463 56.705135 -0.69742966 -1
110.4862 46.807606 -1.3594428 -1
93.428482 75.225876 3.4908643 -1
99.980667 66.301308 2.8290563 -1
105.72051 56.734364 2.0942888 -1
110.46905 46.845829 1.434417 -1
0.1 0.1 0.1 -1
0.1 0.1 0.1 -1
0.1 0.1 0.1 -1
93.245247 74.676811 -11.344498 -1
93.755959 74.496742 -7.7495198 -1
100.27699 65.369751 -8.4451542 -1
105.73399 56.006893 -9.1407118 -1
110.40708 45.98064 -9.8008928 -1
93.364311 75.227943 -4.8848734 -1
100.09626 65.951202 -5.583735 -1
105.64111 56.573071 -6.2803149 -1
110.33084 46.673664 -6.9766822 -1
93.269661 75.474396 -2.0942888 -1
99.946671 66.354134 -2.7915766 -1
105.64233 56.811203 -3.4908643 -1
110.32776 47.013264 -4.1879396 -1
0.1 0.1 0.1 -1
0.1 0.1 0.1 -1
110.68815 46.097698 4.8099556 -1
93.962013 74.313293 6.9766822 -1
4.0681014 1.729321 0.35947818 45
1.055741 0.82513207 0.16452362 47
10.915512 4.6131382 2.1569819 92
91.624924 70.994766 31.058285 -1
93.754738 74.897018 0.69742966 -1
100.44611 65.654999 0 -1
105.95192 56.335636 -0.69742966 -1
110.64892 46.42165 -1.3594428 -1
93.690498 74.899292 3.4908643 -1
100.21149 65.951904 2.8290563 -1
105.91791 56.364983 2.0942888 -1
110.6319 46.459934 1.434417 -1
0.1 0.1 0.1 -1
0.1 0.1 0.1 -1
0.1 0.1 0.1 -1
93.505348 74.350868 -11.344498 -1
94.015434 74.169022 -7.7495198 -1
100.50456 65.019318 -8.4451542 -1
105.92884 55.63747 -9.1407118 -1
110.56691 45.594967 -9.8008928 -1
93.626335 74.901581 -4.8848734 -1
100.32586 65.601402 -5.583735 -1
105.83795 56.203972 -6.2803149 -1
110.4931 46.288254 -6.9766822 -1
93.532547 75.148361 -2.0942888 -1
100.17768 66.004845 -2.7915766 -1
105.83999 56.442097 -3.4908643 -1
110.4912 46.627861 -4.1879396 -1
0.1 0.1 0.1 -1
0.1 0.1 0.1 -1
110.84839 45.711044 4.8099556 -1
94.22084 73.984856 6.9766822 -1
4.0741129 1.7151102 0.35947818 44
1.0586149 0.82144183 0.16452362 42
10.917935 4.5693102 2.1542959 93
18.715128 14.396985 6.3268313 4
94.015602 74.569298 0.69742966 -1
100.67467 65.303978 0 -1
106.14793 55.96545 -0.69742966 -1
110.81028 46.03513 -1.3594428 -1
93.951378 74.5718 3.4908643 -1
100.44109 65.6017 2.8290563 -1
106.11401 55.994919 2.0942888 -1
110.7934 46.073471 1.434417 -1
0.1 0.1 0.1 -1
0.1 0.1 0.1 -1
0.1 0.1 0.1 -1
93.764313 74.024025 -11.344498 -1
94.273758 73.840393 -7.7495198 -1
100.73091 64.668098 -8.4451542 -1
106.12241 55.267372 -9.1407118 -1
110.72539 45.20874 -9.8008928 -1
93.887222 74.57431 -4.8848734 -1
100.55424 65.250793 -5.583735 -1
106.03349 55.834187 -6.2803149 -1
110.65399 45.902279 -6.9766822 -1
93.794296 74.821411 -2.0942888 -1
100.40747 65.654762 -2.7915766 -1
106.03637 56.0723 -3.4908643 -1
110.65328 46.241894 -4.1879396 -1
0.1 0.1 0.1 -1
0.1 0.1 0.1 -1
111.00727 45.32383 4.8099556 -1
94.478523 73.65551 6.9766822 -1
4.0800753 1.7008784 0.35947818 42
1.0575444 0.81471288 0.16391426 33
10.92473 4.5274053 2.1525052 90
11.495599 8.7795153 3.8758152 24
94.275322 74.240669 0.69742966 -1
100.90202 64.952164 0 -1
106.34264 55.594585 -0.69742966 -1
110.9703 45.648048 -1.3594428 -1
94.211105 74.243393 3.4908643 -1
100.66948 65.250694 2.8290563 -1
106.30882 55.624168 2.0942888 -1
110.95355 45.686451 1.434417 -1
0.1 0.1 0.1 -1
0.1 0.1 0.1 -1
0.1 0.1 0.1 -1
94.022133 73.696274 -11.344498 -1
94.530937 73.510864 -7.7495198 -1
100.95603 64.316086 -8.4451542 -1
106.31468 54.896599 -9.1407118 -1
110.88252 44.82196 -9.8008928 -1
94.146965 74.246124 -4.8848734 -1
100.78139 64.899399 -5.583735 -1
106.22775 55.463718 -6.2803149 -1
110.81355 45.515743 -6.9766822 -1
94.054901 74.493553 -2.0942888 -1
100.63603 65.303871 -2.7915766 -1
106.23145 55.701824 -3.4908643 -1
110.81402 45.855358 -4.1879396 -1
0.1 0.1 0.1 -1
0.1 0.1 0.1 -1
111.1648 44.936069 4.8099556 -1
94.735054 73.325272 6.9766822 -1
4.0859876 1.686626 0.35947818 43
1.0564399 0.80800146 0.16330492 37
10.917712 4.4799061 2.1480281 90
11.495387 8.715991 3.8654625 63
94.533897 73.911133 0.69742966 -1
101.12813 64.599556 0 -1
106.53605 55.223042 -0.69742966 -1
111.12897 45.260414 -1.3594428 -1
94.469688 73.914078 3.4908643 -1
100.89663 64.898895 2.8290563 -1
106.50234 55.252743 2.0942888 -1
111.11235 45.298874 1.434417 -1
0.1 0.1 0.1 -1
0.1 0.1 0.1 -1
0.1 0.1 0.1 -1
94.278809 73.36763 -11.344498 -1
94.786957 73.180443 -7.7495198 -1
101.17992 63.963291 -8.4451542 -1
106.50565 54.525158 -9.1407118 -1
111.03831 44.434635 -9.8008928 -1
94.405556 73.917038 -4.8848734 -1
101.00732 64.547211 -5.583735 -1
106.4207 55.092579 -6.2803149 -1
110.97176 45.128654 -6.9766822 -1
94.314362 74.164787 -2.0942888 -1
100.86337 64.952187 -2.7915766 -1
106.42524 55.330666 -3.4908643 -1
110.97341 45.468266 -4.1879396 -1
0.1 0.1 0.1 -1
0.1 0.1 0.1 -1
111.32098 44.547756 4.8099556 -1
94.990433 72.994141 6.9766822 -1
4.0918498 1.6723529 0.35947818 37
1.0592538 0.80430889 0.16330492 32
10.910497 4.4325113 2.1435511 87
11.545035 8.6903343 3.871933 6
94.791321 73.580696 0.69742966 -1
101.353 64.246155 0 -1
106.72816 54.850826 -0.69742966 -1
111.28628 44.872227 -1.3594428 -1
94.727127 73.58387 3.4908643 -1
101.12256 64.546303 2.8290563 -1
106.69456 54.880642 2.0942888 -1
111.2698 44.91074 1.434417 -1
0.1 0.1 0.1 -1
0.1 0.1 0.1 -1
0.1 0.1 0.1 -1
94.534332 73.038086 -11.344498 -1
95.041832 72.849129 -7.7495198 -1
101.40258 63.609718 -8.4451542 -1
106.69534 54.153049 -9.1407118 -1
111.19273 44.046768 -9.8008928 -1
94.663002 73.587051 -4.8848734 -1
101.23202 64.194237 -5.583735 -1
106.61236 54.720764 -6.2803149 -1
111.12861 44.741016 -6.9766822 -1
94.57267 73.835114 -2.0942888 -1
101.08949 64.599716 -2.7915766 -1
106.61773 54.958836 -3.4908643 -1
111.13145 45.08062 -4.1879396 -1
0.1 0.1 0.1 -1
0.1 0.1 0.1 -1
111.47581 44.158901 4.8099556 -1
95.244644 72.662117 6.9766822 -1
4.0976624 1.6580595 0.35947818 38
1.0580921 0.79761916 0.16269557 21
10.903083 4.385222 2.1390743 87
92.849998 69.38488 31.058285 -1
95.047592 73.249367 0.69742966 -1
101.57664 63.891975 0 -1
106.91898 54.47794 -0.69742966 -1
111.44223 44.48349 -1.3594428 -1
94.983406 73.252762 3.4908643 -1
101.34724 64.192924 2.8290563 -1
106.88548 54.507877 2.0942888 -1
111.42589 44.522064 1.434417 -1
0.1 0.1 0.1 -1
0.1 0.1 0.1 -1
0.1 0.1 0.1 -1
94.788712 72.707657 -11.344498 -1
95.29554 72.51693 -7.7495198 -1
101.624 63.255371 -8.4451542 -1
106.88371 53.780285 -9.1407118 -1
111.34581 43.658367 -9.8008928 -1
94.919289 73.256172 -4.8848734 -1
101.45548 63.840481 -5.583735 -1
106.80273 54.348286 -6.2803149 -1
111.2841 44.352833 -6.9766822 -1
94.829826 73.504547 -2.0942888 -1
101.31436 64.246452 -2.7915766 -1
106.80892 54.586334 -3.4908643 -1
111.28813 44.692425 -4.1879396 -1
0.1 0.1 0.1 -1
0.1 0.1 0.1 -1
111.62927 43.769508 4.8099556 -1
95.497704 72.329208 6.9766822 -1
4.1034255 1.6437459 0.35947818 42
1.0608698 0.79392087 0.16269557 27
10.900043 4.3398576 2.1354928 91
93.091629 69.060349 31.058285 -1
95.302696 72.917145 0.69742966 -1
101.79906 63.537018 0 -1
107.10849 54.104389 -0.69742966 -1
111.59683 44.094212 -1.3594428 -1
95.238525 72.920761 3.4908643 -1
101.57071 63.838768 2.8290563 -1
107.0751 54.134445 2.0942888 -1
111.58062 44.132843 1.434417 -1
0.1 0.1 0.1 -1
0.1 0.1 0.1 -1
0.1 0.1 0.1 -1
95.041931 72.376335 -11.344498 -1
95.548096 72.183838 -7.7495198 -1
101.84418 62.900249 -8.4451542 -1
107.07079 53.406864 -9.1407118 -1
111.49753 43.269432 -9.8008928 -1
95.174423 72.924393 -4.8848734 -1
101.67771 63.485947 -5.583735 -1
106.99178 53.975143 -6.2803149 -1
111.43825 43.964111 -6.9766822 -1
95.085823 73.17308 -2.0942888 -1
101.53801 63.89241 -2.7915766 -1
106.99881 54.213169 -3.4908643 -1
111.44346 44.303684 -4.1879396 -1
0.1 0.1 0.1 -1
0.1 0.1 0.1 -1
111.78137 43.379585 4.8099556 -1
95.749603 71.995415 6.9766822 -1
4.109138 1.6294122 0.35947818 37
1.0676184 0.79317248 0.16330492 2
10.892242 4.2927647 2.1310158 90
18.650869 13.735539 6.2064805 4
95.556648 72.58403 0.69742966 -1
102.02022 63.181286 0 -1
107.2967 53.730183 -0.69742966 -1
111.75007 43.704399 -1.3594428 -1
95.492485 72.587875 3.4908643 -1
101.79292 63.483829 2.8290563 -1
107.2634 53.760353 2.0942888 -1
111.73399 43.743088 1.434417 -1
0.1 0.1 0.1 -1
0.1 0.1 0.1 -1
0.1 0.1 0.1 -1
95.293991 72.044136 -11.344498 -1
95.799477 71.849876 -7.7495198 -1
102.06313 62.544365 -8.4451542 -1
107.25656 53.032791 -9.1407118 -1
111.64789 42.879967 -9.8008928 -1
95.428398 72.591728 -4.8848734 -1
101.8987 63.130638 -5.583735 -1
107.17954 53.601341 -6.2803149 -1
111.59103 43.574848 -6.9766822 -1
95.340668 72.840721 -2.0942888 -1
101.76041 63.537586 -2.7915766 -1
107.1874 53.839344 -3.4908643 -1
111.59743 43.914402 -4.1879396 -1
0.1 0.1 0.1 -1
0.1 0.1 0.1 -1
111.93212 42.989132 4.8099556 -1
96.000328 71.660751 6.9766822 -1
4.1194396 1.6168796 0.35988346 36
1.0783684 0.79533231 0.16452362 10
10.888829 4.2475667 2.1274343 86
18.640221 13.627597 6.1870694 4
95.809425 72.250031 0.69742966 -1
102.24014 62.824783 0 -1
107.4836 53.35532 -0.69742966 -1
111.90194 43.314053 -1.3594428 -1
95.745285 72.254097 3.4908643 -1
102.01391 63.12812 2.8290563 -1
107.45041 53.385605 2.0942888 -1
111.886 43.352795 1.434417 -1
0.1 0.1 0.1 -1
0.1 0.1 0.1 -1
0.1 0.1 0.1 -1
95.544891 71.71106 -11.344498 -1
96.049698 71.515038 -7.7495198 -1
102.28082 62.187717 -8.4451542 -1
107.44103 52.658073 -9.1407118 -1
111.79689 42.489983 -9.8008928 -1
95.681206 72.258179 -4.8848734 -1
102.11845 62.774559 -5.583735 -1
107.36599 53.226891 -6.2803149 -1
111.74245 43.185059 -6.9766822 -1
95.594345 72.507477 -2.0942888 -1
101.98158 63.181988 -2.7915766 -1
107.37468 53.464863 -3.4908643 -1
111.75004 43.52459 -4.1879396 -1
0.1 0.1 0.1 -1
0.1 0.1 0.1 -1
112.0815 42.598152 4.8099556 -1
96.249886 71.325211 6.9766822 -1
4.1250587 1.6024902 0.35988346 36
1.0931507 0.80035841 0.16635166 11
10.885234 4.202445 2.1238527 87
18.625135 13.517059 6.1663637 4
96.061043 71.915154 0.69742966 -1
102.45882 62.467518 0 -1
107.66919 52.979809 -0.69742966 -1
112.05245 42.923176 -1.3594428 -1
95.99691 71.919449 3.4908643 -1
102.23364 62.771641 2.8290563 -1
107.63611 53.010208 2.0942888 -1
112.03665 42.961975 1.434417 -1
0.1 0.1 0.1 -1
0.1 0.1 0.1 -1
0.1 0.1 0.1 -1
95.794624 71.377113 -11.344498 -1
96.298744 71.179321 -7.7495198 -1
102.49728 61.830311 -8.4451542 -1
107.62418 52.282711 -9.1407118 -1
111.94453 42.09948 -9.8008928 -1
95.932854 71.923752 -4.8848734 -1
102.33694 62.417717 -5.583735 -1
107.55113 52.851788 -6.2803149 -1
111.89252 42.794743 -6.9766822 -1
95.846863 72.173347 -2.0942888 -1
102.20151 62.825623 -2.7915766 -1
107.56065 53.089729 -3.4908643 -1
111.90129 43.134243 -4.1879396 -1
0.1 0.1 0.1 -1
0.1 0.1 0.1 -1
112.22951 42.206657 4.8099556 -1
96.498268 70.9888 6.9766822 -1
4.1306272 1.5880812 0.35988346 28
1.1039667 0.80237317 0.16757035 15
10.881455 4.1574001 2.1202712 88
18.63302 13.423732 6.1534228 4
96.311493 71.579399 0.69742966 -1
102.67625 62.109489 0 -1
107.85346 52.603649 -0.69742966 -1
112.2016 42.53178 -1.3594428 -1
96.247375 71.583916 3.4908643 -1
102.45213 62.414394 2.8290563 -1
107.8205 52.634167 2.0942888 -1
112.18594 42.570633 1.434417 -1
0.1 0.1 0.1 -1
0.1 0.1 0.1 -1
0.1 0.1 0.1 -1
96.043198 71.04229 -11.344498 -1
96.546623 70.842743 -7.7495198 -1
102.71248 61.472153 -8.4451542 -1
107.80603 51.906715 -9.1407118 -1
112.0908 41.708466 -9.8008928 -1
96.183327 71.58844 -4.8848734 -1
102.5542 62.060116 -5.583735 -1
107.73496 52.476044 -6.2803149 -1
112.04122 42.403904 -6.9766822 -1
96.098213 71.838341 -2.0942888 -1
102.42019 62.468487 -2.7915766 -1
107.74532 52.713951 -3.4908643 -1
112.05117 42.74337 -4.1879396 -1
0.1 0.1 0.1 -1
0.1 0.1 0.1 -1
112.37615 41.814644 4.8099556 -1
96.745476 70.651527 6.9766822 -1
4.1361456 1.573653 0.35988346 28
1.1188345 0.80722582 0.16939838 3
10.877496 4.112433 2.1166897 89
11.455351 8.1921568 3.7735817 3
96.56076 71.242775 0.69742966 -1
102.89243 61.750702 0 -1
108.03643 52.226849 -0.69742966 -1
112.34938 42.139866 -1.3594428 -1
96.496658 71.247513 3.4908643 -1
102.66937 62.056393 2.8290563 -1
108.00356 52.257481 2.0942888 -1
112.33385 42.178772 1.434417 -1
0.1 0.1 0.1 -1
0.1 0.1 0.1 -1
0.1 0.1 0.1 -1
96.290596 70.706604 -11.344498 -1
96.79332 70.505302 -7.7495198 -1
102.92644 61.113243 -8.4451542 -1
107.98656 51.530087 -9.1407118 -1
112.2357 41.31694 -9.8008928 -1
96.432632 71.252266 -4.8848734 -1
102.77021 61.701756 -5.583735 -1
107.91748 52.099659 -6.2803149 -1
112.18855 42.012547 -6.9766822 -1
96.348389 71.502457 -2.0942888 -1
102.63762 62.110596 -2.7915766 -1
107.92867 52.337528 -3.4908643 -1
112.19969 42.351978 -4.1879396 -1
0.1 0.1 0.1 -1
0.1 0.1 0.1 -1
112.52143 41.422123 4.8099556 -1
96.991508 70.313393 6.9766822 -1
4.1462774 1.5609614 0.36028871 26
1.1176108 0.80042577 0.16878904 118
10.873356 4.067544 2.1131082 88
11.472062 8.143733 3.7696993 3
96.808861 70.905281 0.69742966 -1
103.10735 61.391167 0 -1
108.21808 51.849415 -0.69742966 -1
112.4958 41.747437 -1.3594428 -1
96.744774 70.91024 3.4908643 -1
102.88537 61.697632 2.8290563 -1
108.18532 51.880161 2.0942888 -1
112.48039 41.786396 1.434417 -1
0.1 0.1 0.1 -1
0.1 0.1 0.1 -1
0.1 0.1 0.1 -1
96.536819 70.370056 -11.344498 -1
97.038841 70.167 -7.7495198 -1
103.13913 60.75359 -8.4451542 -1
108.16578 51.152828 -9.1407118 -1
112.37924 40.924911 -9.8008928 -1
96.680763 70.915215 -4.8848734 -1
102.98496 61.342644 -5.583735 -1
108.09869 51.722637 -6.2803149 -1
112.33452 41.620682 -6.9766822 -1
96.597389 71.165703 -2.0942888 -1
102.8538 61.751945 -2.7915766 -1
108.1107 51.960468 -3.4908643 -1
112.34685 41.960072 -4.1879396 -1
0.1 0.1 0.1 -1
0.1 0.1 0.1 -1
112.66534 41.029099 4.8099556 -1
97.236359 69.974396 6.9766822 -1
4.151701 1.5464787 0.36028871 31
1.1163532 0.79364419 0.16817969 123
10.873648 4.0244422 2.1104219 85
11.453043 8.0702553 3.7541702 2
97.055771 70.566925 0.69742966 -1
103.32101 61.03088 0 -1
108.39841 51.471348 -0.69742966 -1
112.64083 41.354496 -1.3594428 -1
96.991707 70.572105 3.4908643 -1
103.10011 61.338116 2.8290563 -1
108.36575 51.502205 2.0942888 -1
112.62557 41.393513 1.434417 -1
0.1 0.1 0.1 -1
0.1 0.1 0.1 -1
0.1 0.1 0.1 -1
96.781868 70.032654 -11.344498 -1
97.28318 69.827843 -7.7495198 -1
103.35057 60.3932 -8.4451542 -1
108.34367 50.774948 -9.1407118 -1
112.52141 40.532387 -9.8008928 -1
96.927711 70.577309 -4.8848734 -1
103.19846 60.982784 -5.583735 -1
108.27857 51.344986 -6.2803149 -1
112.47912 41.228306 -6.9766822 -1
96.845215 70.828087 -2.0942888 -1
103.06873 61.39254 -2.7915766 -1
108.29142 51.582775 -3.4908643 -1
112.49263 41.567654 -4.1879396 -1
0.1 0.1 0.1 -1
0.1 0.1 0.1 -1
112.80787 40.635574 4.8099556 -1
97.480019 69.634552 6.9766822 -1
4.1617498 1.5337003 0.36069399 31
1.1069524 0.78115839 0.16635166 12
10.864532 3.9780047 2.1059451 89
11.485102 8.0329962 3.7554643 4
97.301506 70.227707 0.69742966 -1
103.53342 60.669849 0 -1
108.57742 51.092651 -0.69742966 -1
112.7845 40.961056 -1.3594428 -1
97.237457 70.233116 3.4908643 -1
103.31359 60.977856 2.8290563 -1
108.54487 51.123627 2.0942888 -1
112.76938 41.000122 1.434417 -1
0.1 0.1 0.1 -1
0.1 0.1 0.1 -1
0.1 0.1 0.1 -1
97.025742 69.694389 -11.344498 -1
97.526329 69.487839 -7.7495198 -1
103.56075 60.03207 -8.4451542 -1
108.52026 50.396446 -9.1407118 -1
112.66221 40.139366 -9.8008928 -1
97.173485 70.238533 -4.8848734 -1
103.4107 60.622185 -5.583735 -1
108.45715 50.966713 -6.2803149 -1
112.62235 40.83543 -6.9766822 -1
97.091866 70.489601 -2.0942888 -1
103.2824 61.032391 -2.7915766 -1
108.47082 51.204453 -3.4908643 -1
112.63704 41.174725 -4.1879396 -1
0.1 0.1 0.1 -1
0.1 0.1 0.1 -1
112.94902 40.24155 4.8099556 -1
97.722496 69.293861 6.9766822 -1
4.167078 1.5191638 0.36069399 27
1.1218666 0.78583133 0.16817969 24
10.864477 3.9350307 2.1032588 85
11.493236 7.9790854 3.7489939 5
97.546051 69.887634 0.69742966 -1
103.74457 60.308083 0 -1
108.7551 50.713333 -0.69742966 -1
112.9268 40.567116 -1.3594428 -1
97.482025 69.893265 3.4908643 -1
103.52581 60.616856 2.8290563 -1
108.72266 50.744423 2.0942888 -1
112.9118 40.606236 1.434417 -1
0.1 0.1 0.1 -1
0.1 0.1 0.1 -1
0.1 0.1 0.1 -1
97.268425 69.355286 -11.344498 -1
97.768295 69.146988 -7.7495198 -1
103.76968 59.670208 -8.4451542 -1
108.69551 50.017334 -9.1407118 -1
112.80164 39.745857 -9.8008928 -1
97.418068 69.898911 -4.8848734 -1
103.62168 60.260845 -5.583735 -1
108.63439 50.587814 -6.2803149 -1
112.76421 40.442055 -6.9766822 -1
97.337326 70.150253 -2.0942888 -1
103.49481 60.671497 -2.7915766 -1
108.6489 50.825504 -3.4908643 -1
112.78008 40.7813 -4.1879396 -1
0.1 0.1 0.1 -1
0.1 0.1 0.1 -1
113.08881 39.847042 4.8099556 -1
97.963783 68.952324 6.9766822 -1
4.1723557 1.5046088 0.36069399 27
1.1205282 0.77907747 0.16757035 14
10.924457 3.9136729 2.1122127 50
11.473295 7.906033 3.7334647 4
97.789413 69.546707 0.69742966 -1
103.95445 59.94558 0 -1
108.93146 50.333401 -0.69742966 -1
113.06771 40.17268 -1.3594428 -1
97.725403 69.552567 3.4908643 -1
103.73677 60.255112 2.8290563 -1
108.89913 50.364601 2.0942888 -1
113.05286 40.211853 1.434417 -1
0.1 0.1 0.1 -1
0.1 0.1 0.1 -1
0.1 0.1 0.1 -1
97.509933 69.015335 -11.344498 -1
98.009064 68.80529 -7.7495198 -1
103.97733 59.307621 -8.4451542 -1
108.86944 49.637611 -9.1407118 -1
112.93969 39.351864 -9.8008928 -1
97.661469 69.558434 -4.8848734 -1
103.8314 59.898769 -5.583735 -1
108.81031 50.208302 -6.2803149 -1
112.90469 40.048187 -6.9766822 -1
97.581604 69.810059 -2.0942888 -1
103.70597 60.30986 -2.7915766 -1
108.82565 50.445942 -3.4908643 -1
112.92175 40.387375 -4.1879396 -1
0.1 0.1 0.1 -1
0.1 0.1 0.1 -1
113.22721 39.452045 4.8099556 -1
98.203873 68.609947 6.9766822 -1
4.1775823 1.4900354 0.36069399 24
1.1191564 0.77234256 0.166961 18
10.989055 3.8935871 2.122062 56
11.373258 7.778688 3.6920538 40
98.031578 69.204933 0.69742966 -1
104.16306 59.582344 0 -1
109.10649 49.95285 -0.69742966 -1
113.20725 39.777756 -1.3594428 -1
97.96759 69.211014 3.4908643 -1
103.94647 59.892635 2.8290563 -1
109.07427 49.984165 2.0942888 -1
113.19254 39.816978 1.434417 -1
0.1 0.1 0.1 -1
0.1 0.1 0.1 -1
0.1 0.1 0.1 -1
97.750244 68.674538 -11.344498 -1
98.248642 68.462753 -7.7495198 -1
104.18372 58.944313 -8.4451542 -1
109.04205 49.257282 -9.1407118 -1
113.07636 38.95739 -9.8008928 -1
97.903679 69.217102 -4.8848734 -1
104.03985 59.535965 -5.583735 -1
108.98491 49.828178 -6.2803149 -1
113.04379 39.653835 -6.9766822 -1
97.824692 69.469009 -2.0942888 -1
103.91586 59.947495 -2.7915766 -1
109.00107 50.065762 -3.4908643 -1
113.06203 39.992958 -4.1879396 -1
0.1 0.1 0.1 -1
0.1 0.1 0.1 -1
113.36423 39.056568 4.8099556 -1
98.442772 68.266731 6.9766822 -1
4.1827583 1.4754438 0.36069399 21
98.26384 67.307854 14.624321 -1
11.011865 3.8584578 2.1238527 52
11.404337 7.741653 3.6933477 63
98.272552 68.86232 0.69742966 -1
104.37041 59.218384 0 -1
109.2802 49.571693 -0.69742966 -1
113.34541 39.382343 -1.3594428 -1
98.208588 68.868622 3.4908643 -1
104.1549 59.52943 2.8290563 -1
109.24809 49.603119 2.0942888 -1
113.33083 39.421619 1.434417 -1
0.1 0.1 0.1 -1
0.1 0.1 0.1 -1
0.1 0.1 0.1 -1
97.989365 68.332909 -11.344498 -1
98.487022 68.119385 -7.7495198 -1
104.38884 58.580284 -8.4451542 -1
109.21332 48.876354 -9.1407118 -1
113.21166 38.562443 -9.8008928 -1
98.144699 68.874939 -4.8848734 -1
104.24704 59.172436 -5.583735 -1
109.15818 49.447445 -6.2803149 -1
113.18153 39.258995 -6.9766822 -1
98.066589 69.127113 -2.0942888 -1
104.12448 59.584393 -2.7915766 -1
109.17517 49.684971 -3.4908643 -1
113.20095 39.598053 -4.1879396 -1
0.1 0.1 0.1 -1
0.1 0.1 0.1 -1
113.49987 38.660614 4.8099556 -1
98.680466 67.922691 6.9766822 -1
4.1878829 1.4608343 0.36069399 17
98.498192 66.964432 14.624321 -1
11.011321 3.8151643 2.1211667 46
11.42328 7.6964002 3.6907597 3
98.512329 68.51886 0.69742966 -1
104.57648 58.853703 0 -1
109.45257 49.189934 -0.69742966 -1
113.48219 38.986454 -1.3594428 -1
98.448387 68.525391 3.4908643 -1
104.36206 59.165501 2.8290563 -1
109.42057 49.22147 2.0942888 -1
113.46775 39.025784 1.434417 -1
0.1 0.1 0.1 -1
0.1 0.1 0.1 -1
0.1 0.1 0.1 -1
98.227295 67.990448 -11.344498 -1
98.724205 67.775185 -7.7495198 -1
104.59269 58.215542 -8.4451542 -1
109.38326 48.494831 -9.1407118 -1
113.34558 38.167027 -9.8008928 -1
98.384514 68.531929 -4.8848734 -1
104.45295 58.808186 -5.583735 -1
109.33012 49.066113 -6.2803149 -1
113.31787 38.863678 -6.9766822 -1
98.307289 68.784378 -2.0942888 -1
104.33183 59.22057 -2.7915766 -1
109.34794 49.303577 -3.4908643 -1
113.33849 39.202667 -4.1879396 -1
0.1 0.1 0.1 -1
0.1 0.1 0.1 -1
113.63413 38.264191 4.8099556 -1
98.916962 67.577812 6.9766822 -1
4.1976676 1.4478319 0.36109927 15
98.731339 66.620201 14.624321 -1
10.99665 3.767139 2.1157942 39
96.354073 64.430397 31.058285 -1
98.750908 68.174576 0.69742966 -1
104.78129 58.488304 0 -1
109.6236 48.807571 -0.69742966 -1
113.61759 38.590092 -1.3594428 -1
98.686981 68.18132 3.4908643 -1
104.56796 58.800846 2.8290563 -1
109.59172 48.839222 2.0942888 -1
113.60329 38.629467 1.434417 -1
0.1 0.1 0.1 -1
0.1 0.1 0.1 -1
0.1 0.1 0.1 -1
98.464027 67.647156 -11.344498 -1
98.960182 67.430161 -7.7495198 -1
104.79526 57.85009 -8.4451542 -1
109.55188 48.112717 -9.1407118 -1
113.47812 37.771145 -9.8008928 -1
98.623138 68.18808 -4.8848734 -1
104.65759 58.443218 -5.583735 -1
109.50072 48.684177 -6.2803149 -1
113.45284 38.467888 -6.9766822 -1
98.546791 68.440804 -2.0942888 -1
104.53792 58.856022 -2.7915766 -1
109.51937 48.921581 -3.4908643 -1
113.47464 38.806805 -4.1879396 -1
0.1 0.1 0.1 -1
0.1 0.1 0.1 -1
113.76701 37.867302 4.8099556 -1
99.152245 67.232117 6.9766822 -1
4.2026963 1.4331704 0.36109927 17
98.963287 66.275162 14.624321 -1
10.995755 3.7239969 2.1131082 11
18.506834 12.281948 5.9515438 4
98.988274 67.829453 0.69742966 -1
104.98481 58.122192 0 -1
109.7933 48.424618 -0.69742966 -1
113.7516 38.193256 -1.3594428 -1
98.924377 67.836426 3.4908643 -1
104.77257 58.435478 2.8290563 -1
109.76153 48.456379 2.0942888 -1
113.73743 38.232681 1.434417 -1
0.1 0.1 0.1 -1
0.1 0.1 0.1 -1
0.1 0.1 0.1 -1
98.699562 67.30304 -11.344498 -1
99.194954 67.084312 -7.7495198 -1
104.99655 57.483936 -8.4451542 -1
109.71915 47.730019 -9.1407118 -1
113.60928 37.374802 -9.8008928 -1
98.860558 67.843407 -4.8848734 -1
104.86096 58.077541 -5.583735 -1
109.67 48.301655 -6.2803149 -1
113.58643 38.071632 -6.9766822 -1
98.785095 68.09639 -2.0942888 -1
104.74272 58.490757 -2.7915766 -1
109.68948 48.53899 -3.4908643 -1
113.60941 38.410465 -4.1879396 -1
0.1 0.1 0.1 -1
0.1 0.1 0.1 -1
113.8985 37.469948 4.8099556 -1
99.38633 66.885605 6.9766822 -1
4.2171183 1.4216756 0.36190981 19
11.365982 7.5544004 1.6757035 14
10.990028 3.6793449 2.1095266 13
18.497158 12.182738 5.9347205 5
99.224442 67.483505 0.69742966 -1
105.18706 57.755371 0 -1
109.96167 48.041073 -0.69742966 -1
113.88423 37.795956 -1.3594428 -1
99.160568 67.4907 3.4908643 -1
104.97591 58.069397 2.8290563 -1
109.93001 48.072941 2.0942888 -1
113.8702 37.835434 1.434417 -1
0.1 0.1 0.1 -1
0.1 0.1 0.1 -1
0.1 0.1 0.1 -1
98.933891 66.958099 -11.344498 -1
99.42852 66.737648 -7.7495198 -1
105.19657 57.117077 -8.4451542 -1
109.88509 47.346737 -9.1407118 -1
113.73904 36.978004 -9.8008928 -1
99.096771 67.49791 -4.8848734 -1
105.06305 57.711151 -5.583735 -1
109.83793 47.918541 -6.2803149 -1
113.71863 37.674908 -6.9766822 -1
99.022194 67.751152 -2.0942888 -1
104.94626 58.124783 -2.7915766 -1
109.85824 48.155804 -3.4908643 -1
113.74279 38.01366 -4.1879396 -1
0.1 0.1 0.1 -1
0.1 0.1 0.1 -1
114.02859 37.07214 4.8099556 -1
99.619194 66.538269 6.9766822 -1
4.2125993 1.4037954 0.36109927 17
11.404711 7.5228772 1.6775315 13
10.988794 3.6363239 2.1068404 12
18.49106 12.086388 5.9191914 5
99.459396 67.136734 0.69742966 -1
105.38802 57.387848 0 -1
110.12869 47.65694 -0.69742966 -1
114.01546 37.398197 -1.3594428 -1
99.395554 67.144157 3.4908643 -1
105.17797 57.70261 2.8290563 -1
110.09715 47.688923 2.0942888 -1
114.00158 37.437721 1.434417 -1
0.1 0.1 0.1 -1
0.1 0.1 0.1 -1
0.1 0.1 0.1 -1
99.167015 66.61235 -11.344498 -1
99.660873 66.390175 -7.7495198 -1
105.39531 56.749527 -8.4451542 -1
110.0497 46.962875 -9.1407118 -1
113.86742 36.580753 -9.8008928 -1
99.331779 67.151581 -4.8848734 -1
105.26386 57.344063 -5.583735 -1
110.00453 47.534843 -6.2803149 -1
113.84945 37.277725 -6.9766822 -1
99.258087 67.40509 -2.0942888 -1
105.14851 57.758095 -2.7915766 -1
110.02567 47.772034 -3.4908643 -1
113.87479 37.616394 -4.1879396 -1
0.1 0.1 0.1 -1
0.1 0.1 0.1 -1
114.1445 36.713726 4.8099556 -1
99.827744 66.224983 6.9766822 -1
4.2311869 1.3952363 0.36231509 16
11.386776 7.4598155 1.6714381 13
10.981464 3.5956609 2.1032588 12
18.516787 12.020348 5.9153094 5
99.669823 66.823944 0.69742966 -1
105.56779 57.05648 0 -1
110.27787 47.310726 -0.69742966 -1
114.13239 37.039822 -1.3594428 -1
99.606003 66.831566 3.4908643 -1
105.35873 57.371899 2.8290563 -1
110.24641 47.342808 2.0942888 -1
114.11863 37.079391 1.434417 -1
0.1 0.1 0.1 -1
0.1 0.1 0.1 -1
0.1 0.1 0.1 -1
99.375793 66.300476 -11.344498 -1
99.86895 66.076752 -7.7495198 -1
105.57307 56.418137 -8.4451542 -1
110.19669 46.616913 -9.1407118 -1
113.98179 36.222851 -9.8008928 -1
99.542252 66.839195 -4.8848734 -1
105.44349 57.013084 -5.583735 -1
110.15332 47.189018 -6.2803149 -1
113.966 36.919876 -6.9766822 -1
99.46936 67.092926 -2.0942888 -1
105.32944 57.427479 -2.7915766 -1
110.1752 47.426144 -3.4908643 -1
113.9924 37.258461 -4.1879396 -1
0.1 0.1 0.1 -1
0.1 0.1 0.1 -1
114.27196 36.315063 4.8099556 -1
100.0583 65.876114 6.9766822 -1
113.71896 37.05928 9.7265797 -1
11.391943 7.4064975 1.6683913 5
10.979907 3.5527635 2.1005728 8
11.360108 7.318284 3.6208785 3
99.902473 66.475624 0.69742966 -1
105.76631 56.687634 0 -1
110.44234 46.925499 -0.69742966 -1
114.26099 36.641201 -1.3594428 -1
99.838684 66.483467 3.4908643 -1
105.55835 57.00378 2.8290563 -1
110.411 46.957687 2.0942888 -1
114.24737 36.680817 1.434417 -1
0.1 0.1 0.1 -1
0.1 0.1 0.1 -1
0.1 0.1 0.1 -1
99.606621 65.953186 -11.344498 -1
100.09899 65.727745 -7.7495198 -1
105.76936 56.049274 -8.4451542 -1
110.35874 46.231972 -9.1407118 -1
114.10754 35.824757 -9.8008928 -1
99.774956 66.491318 -4.8848734 -1
105.64186 56.644669 -5.583735 -1
110.31737 46.804226 -6.2803149 -1
114.09418 36.521835 -6.9766822 -1
99.70295 66.745308 -2.0942888 -1
105.52926 57.05946 -2.7915766 -1
110.34008 47.041271 -3.4908643 -1
114.12177 36.860325 -4.1879396 -1
0.1 0.1 0.1 -1
0.1 0.1 0.1 -1
114.39803 35.915958 4.8099556 -1
100.28764 65.526443 6.9766822 -1
113.84763 36.662098 9.7265797 -1
11.380197 7.3424721 1.6629072 5
10.9735 3.5084226 2.0969913 8
11.361169 7.2629771 3.6131139 3
100.13391 66.126495 0.69742966 -1
105.96354 56.318096 0 -1
110.60547 46.539696 -0.69742966 -1
114.3882 36.24213 -1.3594428 -1
100.07014 66.13456 3.4908643 -1
105.75669 56.634964 2.8290563 -1
110.57424 46.571995 2.0942888 -1
114.37471 36.281796 1.434417 -1
0.1 0.1 0.1 -1
0.1 0.1 0.1 -1
0.1 0.1 0.1 -1
99.836235 65.605095 -11.344498 -1
100.32782 65.37793 -7.7495198 -1
105.96437 55.679729 -8.4451542 -1
110.51945 45.846466 -9.1407118 -1
114.23189 35.426231 -9.8008928 -1
100.00645 66.142632 -4.8848734 -1
105.83894 56.275566 -5.583735 -1
110.48007 46.418858 -6.2803149 -1
114.22097 36.123348 -6.9766822 -1
99.935326 66.396873 -2.0942888 -1
105.72779 56.690746 -2.7915766 -1
110.50361 46.655827 -3.4908643 -1
114.24974 36.461742 -4.1879396 -1
0.1 0.1 0.1 -1
0.1 0.1 0.1 -1
114.5227 35.516418 4.8099556 -1
100.51576 65.175972 6.9766822 -1
113.97491 36.264473 9.7265797 -1
11.376501 7.2839713 1.6586418 4
10.966917 3.4641697 2.0934098 7
11.357905 7.2051654 3.6040552 3
100.36413 65.776558 0.69742966 -1
106.15948 55.947868 0 -1
110.76725 46.153328 -0.69742966 -1
114.51401 35.842621 -1.3594428 -1
100.30038 65.784851 3.4908643 -1
105.95374 56.265461 2.8290563 -1
110.73614 46.185734 2.0942888 -1
114.50066 35.882332 1.434417 -1
0.1 0.1 0.1 -1
0.1 0.1 0.1 -1
0.1 0.1 0.1 -1
100.06463 65.256203 -11.344498 -1
100.55542 65.027321 -7.7495198 -1
106.15808 55.309505 -8.4451542 -1
110.67881 45.460403 -9.1407118 -1
114.35486 35.027271 -9.8008928 -1
100.23672 65.793144 -4.8848734 -1
106.03474 55.905777 -5.583735 -1
110.64143 46.032928 -6.2803149 -1
114.34637 35.724422 -6.9766822 -1
100.16649 66.04763 -2.0942888 -1
105.92504 56.321342 -2.7915766 -1
110.66579 46.269814 -3.4908643 -1
114.37632 36.062714 -4.1879396 -1
0.1 0.1 0.1 -1
0.1 0.1 0.1 -1
114.64597 35.116444 4.8099556 -1
100.74265 64.824715 6.9766822 -1
114.10081 35.866405 9.7265797 -1
11.372536 7.2255864 1.6543764 4
10.960158 3.4200058 2.089828 7
11.338027 7.1371732 3.5898201 3
100.59312 65.425827 0.69742966 -1
106.35413 55.576962 0 -1
110.92768 45.766396 -0.69742966 -1
114.63843 35.442677 -1.3594428 -1
100.52941 65.434334 3.4908643 -1
106.1495 55.895271 2.8290563 -1
110.89668 45.798912 2.0942888 -1
114.62521 35.48243 1.434417 -1
0.1 0.1 0.1 -1
0.1 0.1 0.1 -1
0.1 0.1 0.1 -1
100.29181 64.906517 -11.344498 -1
100.78179 64.675926 -7.7495198 -1
106.3505 54.938606 -8.4451542 -1
110.83682 45.073784 -9.1407118 -1
114.47643 34.627884 -9.8008928 -1
100.46577 65.442848 -4.8848734 -1
106.22924 55.535305 -5.583735 -1
110.80145 45.646439 -6.2803149 -1
114.47037 35.325062 -6.9766822 -1
100.39642 65.697578 -2.0942888 -1
106.12099 55.951252 -2.7915766 -1
110.82663 45.883236 -3.4908643 -1
114.5015 35.663246 -4.1879396 -1
0.1 0.1 0.1 -1
0.1 0.1 0.1 -1
114.76786 34.716038 4.8099556 -1
100.96832 64.472664 6.9766822 -1
114.22531 35.467903 9.7265797 -1
11.368302 7.1673174 1.650111 5
10.957927 3.3773801 2.087142 7
11.34239 7.0847597 3.5833497 3
100.82088 65.074287 0.69742966 -1
106.54749 55.205379 0 -1
111.08676 45.378906 -0.69742966 -1
114.76144 35.042297 -1.3594428 -1
100.7572 65.083023 3.4908643 -1
106.34396 55.524399 2.8290563 -1
111.05587 45.411533 2.0942888 -1
114.74837 35.082096 1.434417 -1
0.1 0.1 0.1 -1
0.1 0.1 0.1 -1
0.1 0.1 0.1 -1
100.51776 64.556038 -11.344498 -1
101.00694 64.323738 -7.7495198 -1
106.54163 54.567039 -8.4451542 -1
110.99348 44.686615 -9.1407118 -1
114.5966 34.228077 -9.8008928 -1
100.6936 65.091759 -4.8848734 -1
106.42245 55.164158 -5.583735 -1
110.96011 45.259392 -6.2803149 -1
114.59298 34.92527 -6.9766822 -1
100.62514 65.346733 -2.0942888 -1
106.31565 55.580479 -2.7915766 -1
110.98612 45.496098 -3.4908643 -1
114.62529 35.263344 -4.1879396 -1
0.1 0.1 0.1 -1
0.1 0.1 0.1 -1
114.88834 34.315212 4.8099556 -1
7.5135622 4.7608967 0.51801866 3
114.34842 35.068966 9.7265797 -1
11.363801 7.1091666 1.6458455 4
10.950826 3.3333793 2.0835605 7
11.338316 7.0273142 3.574291 4
101.04742 64.721962 0.69742966 -1
106.73954 54.833122 0 -1
111.24448 44.990868 -0.69742966 -1
114.88306 34.641491 -1.3594428 -1
100.98377 64.730919 3.4908643 -1
106.53712 55.152851 2.8290563 -1
111.21371 45.023598 2.0942888 -1
114.87013 34.681339 1.434417 -1
0.1 0.1 0.1 -1
0.1 0.1 0.1 -1
0.1 0.1 0.1 -1
100.74249 64.204765 -11.344498 -1
101.23086 63.970764 -7.7495198 -1
106.73145 54.194809 -8.4451542 -1
111.1488 44.298904 -9.1407118 -1
114.71539 33.82785 -9.8008928 -1
100.9202 64.739876 -4.8848734 -1
106.61436 54.792339 -5.583735 -1
111.11742 44.871792 -6.2803149 -1
114.7142 34.525055 -6.9766822 -1
100.85263 64.995087 -2.0942888 -1
106.50902 55.20903 -2.7915766 -1
111.14426 45.108406 -3.4908643 -1
114.74769 34.863014 -4.1879396 -1
0.1 0.1 0.1 -1
0.1 0.1 0.1 -1
115.00742 33.913967 4.8099556 -1
101.41596 63.766205 6.9766822 -1
114.47014 34.669601 9.7265797 -1
11.287353 7.00664 1.6312212 11
10.948262 3.2908854 2.0808742 13
11.329865 6.9674535 3.5639381 4
101.27273 64.368843 0.69742966 -1
106.93029 54.460197 0 -1
111.40086 44.602276 -0.69742966 -1
115.00329 34.240261 -1.3594428 -1
101.20911 64.378021 3.4908643 -1
106.729 54.780628 2.8290563 -1
111.37019 44.635117 2.0942888 -1
114.99049 34.280155 1.434417 -1
0.1 0.1 0.1 -1
0.1 0.1 0.1 -1
0.1 0.1 0.1 -1
100.966 63.852722 -11.344498 -1
101.45354 63.617012 -7.7495198 -1
106.91998 53.821915 -8.4451542 -1
111.30275 43.910652 -9.1407118 -1
114.83276 33.427212 -9.8008928 -1
101.14557 64.387207 -4.8848734 -1
106.80497 54.419849 -5.583735 -1
111.27337 44.483646 -6.2803149 -1
114.83401 34.124416 -6.9766822 -1
101.07889 64.642647 -2.0942888 -1
106.70108 54.836906 -2.7915766 -1
111.30103 44.720165 -3.4908643 -1
114.86868 34.462257 -4.1879396 -1
0.1 0.1 0.1 -1
0.1 0.1 0.1 -1
115.1251 33.51231 4.8099556 -1
101.63793 63.411808 6.9766822 -1
114.59046 34.269814 9.7265797 -1
101.4127 62.46273 14.624321 -1
10.945535 3.24845 2.0781882 6
11.333503 6.9152846 3.5574677 4
101.4968 64.014946 0.69742966 -1
107.11974 54.086609 0 -1
111.55587 44.213142 -0.69742966 -1
115.12211 33.838619 -1.3594428 -1
101.43321 64.024345 3.4908643 -1
106.91957 54.407742 2.8290563 -1
111.52532 44.24609 2.0942888 -1
115.10945 33.878555 1.434417 -1
0.1 0.1 0.1 -1
0.1 0.1 0.1 -1
0.1 0.1 0.1 -1
101.18827 63.499893 -11.344498 -1
101.67499 63.262486 -7.7495198 -1
107.10719 53.448368 -8.4451542 -1
111.45535 43.521866 -9.1407118 -1
114.94875 33.026169 -9.8008928 -1
101.36971 64.033752 -4.8848734 -1
106.99428 54.0467 -5.583735 -1
111.42797 44.094959 -6.2803149 -1
114.95243 33.723362 -6.9766822 -1
101.30392 64.289421 -2.0942888 -1
106.89185 54.464115 -2.7915766 -1
111.45646 44.331379 -3.4908643 -1
114.98828 34.061081 -4.1879396 -1
0.1 0.1 0.1 -1
0.1 0.1 0.1 -1
115.24138 33.110245 4.8099556 -1
101.85866 63.056637 6.9766822 -1
114.70939 33.86961 9.7265797 -1
101.63012 62.108353 14.624321 -1
10.937924 3.2046907 2.0746067 13
11.303863 6.8431664 3.5406446 23
101.71964 63.660267 0.69742966 -1
107.30788 53.712364 0 -1
111.70952 43.823471 -0.69742966 -1
115.23952 33.436562 -1.3594428 -1
101.65608 63.669888 3.4908643 -1
107.10883 54.034191 2.8290563 -1
111.67909 43.856522 2.0942888 -1
115.22701 33.47654 1.434417 -1
0.1 0.1 0.1 -1
0.1 0.1 0.1 -1
0.1 0.1 0.1 -1
101.40931 63.146294 -11.344498 -1
101.8952 62.907188 -7.7495198 -1
107.29311 53.074169 -8.4451542 -1
111.60659 43.132549 -9.1407118 -1
115.06333 32.624722 -9.8008928 -1
101.59261 63.679516 -4.8848734 -1
107.18229 53.67289 -5.583735 -1
111.58121 43.705734 -6.2803149 -1
115.06944 33.321899 -6.9766822 -1
101.52772 63.935413 -2.0942888 -1
107.08131 54.090664 -2.7915766 -1
111.61053 43.942055 -3.4908643 -1
115.10648 33.659489 -4.1879396 -1
0.1 0.1 0.1 -1
0.1 0.1 0.1 -1
115.35625 32.707775 4.8099556 -1
102.07815 62.700703 6.9766822 -1
114.82691 33.468994 9.7265797 -1
101.8463 61.75322 14.624321 -1
10.934868 3.1623907 2.0719204 14
11.273858 6.7713394 3.5238214 52
101.94123 63.30481 0.69742966 -1
107.49472 53.33746 0 -1
111.86181 43.433266 -0.69742966 -1
115.35554 33.034096 -1.3594428 -1
101.87772 63.314655 3.4908643 -1
107.2968 53.659985 2.8290563 -1
111.8315 43.466423 2.0942888 -1
115.34316 33.07412 1.434417 -1
0.1 0.1 0.1 -1
0.1 0.1 0.1 -1
0.1 0.1 0.1 -1
101.62911 62.791924 -11.344498 -1
102.11416 62.551125 -7.7495198 -1
107.47772 52.699322 -8.4451542 -1
111.75647 42.742706 -9.1407118 -1
115.17651 32.222878 -9.8008928 -1
101.81427 63.324501 -4.8848734 -1
107.36899 53.298428 -5.583735 -1
111.73309 43.315975 -6.2803149 -1
115.18506 32.920029 -6.9766822 -1
101.75027 63.580627 -2.0942888 -1
107.26947 53.716549 -2.7915766 -1
111.76323 43.552193 -3.4908643 -1
115.22327 33.257488 -4.1879396 -1
0.1 0.1 0.1 -1
0.1 0.1 0.1 -1
115.46973 32.304909 4.8099556 -1
102.29639 62.344002 6.9766822 -1
114.94305 33.06797 9.7265797 -1
102.06124 61.397335 14.624321 -1
10.926919 3.1188011 2.0683389 13
11.326468 6.7492509 3.5328801 14
102.16158 62.948586 0.69742966 -1
107.68025 52.96191 0 -1
112.01274 43.04253 -0.69742966 -1
115.47015 32.631229 -1.3594428 -1
102.0981 62.958649 3.4908643 -1
107.48345 53.285122 2.8290563 -1
111.98254 43.075794 2.0942888 -1
115.45791 32.671295 1.434417 -1
0.1 0.1 0.1 -1
0.1 0.1 0.1 -1
0.1 0.1 0.1 -1
101.84768 62.43679 -11.344498 -1
102.33188 62.194298 -7.7495198 -1
107.66103 52.323833 -8.4451542 -1
111.90499 42.352345 -9.1407118 -1
115.28829 31.820639 -9.8008928 -1
102.03469 62.968719 -4.8848734 -1
107.55438 52.923317 -5.583735 -1
111.88361 42.92569 -6.2803149 -1
115.29927 32.517757 -6.9766822 -1
101.97159 63.225063 -2.0942888 -1
107.45632 53.341782 -2.7915766 -1
111.91458 43.1618 -3.4908643 -1
115.33865 32.85508 -4.1879396 -1
0.1 0.1 0.1 -1
0.1 0.1 0.1 -1
115.58179 31.901648 4.8099556 -1
3.7759099 2.2831709 0.25697446 10
115.05777 32.666542 9.7265797 -1
18.366873 10.961892 2.6262844 3
10.923534 3.0766392 2.0656528 6
99.779854 58.986137 31.058285 -1
102.38069 62.591591 0.69742966 -1
107.86446 52.585712 0 -1
112.16231 42.651272 -0.69742966 -1
115.58335 32.227962 -1.3594428 -1
102.31725 62.601875 3.4908643 -1
107.66879 52.909611 2.8290563 -1
112.13223 42.684639 2.0942888 -1
115.57125 32.268074 1.434417 -1
0.1 0.1 0.1 -1
0.1 0.1 0.1 -1
0.1 0.1 0.1 -1
102.065 62.080894 -11.344498 -1
102.54836 61.836716 -7.7495198 -1
107.84301 51.947708 -8.4451542 -1
112.05215 41.961464 -9.1407118 -1
115.39866 31.418015 -9.8008928 -1
102.25388 62.612167 -4.8848734 -1
107.73846 52.547558 -5.583735 -1
112.03277 42.534882 -6.2803149 -1
115.41207 32.115089 -6.9766822 -1
102.19167 62.868732 -2.0942888 -1
107.64187 52.966366 -2.7915766 -1
112.06456 42.770885 -3.4908643 -1
115.45264 32.452274 -4.1879396 -1
0.1 0.1 0.1 -1
0.1 0.1 0.1 -1
115.69244 31.497997 4.8099556 -1
3.788137 2.2725444 0.25726515 10
115.1711 32.264717 9.7265797 -1
102.48738 60.683323 14.624321 -1
10.919989 3.034539 2.0629666 5
99.985146 58.637482 31.058285 -1
102.59856 62.233833 0.69742966 -1
108.04736 52.208874 0 -1
112.3105 42.259491 -0.69742966 -1
115.69514 31.824306 -1.3594428 -1
102.53514 62.244343 3.4908643 -1
107.85283 52.533451 2.8290563 -1
112.28054 42.292965 2.0942888 -1
115.68318 31.864458 1.434417 -1
0.1 0.1 0.1 -1
0.1 0.1 0.1 -1
0.1 0.1 0.1 -1
102.28108 61.724243 -11.344498 -1
102.76358 61.478378 -7.7495198 -1
108.02369 51.57095 -8.4451542 -1
112.19794 41.570076 -9.1407118 -1
115.50763 31.015007 -9.8008928 -1
102.47181 62.254852 -4.8848734 -1
107.92123 52.171162 -5.583735 -1
112.18056 42.143559 -6.2803149 -1
115.52348 31.71203 -6.9766822 -1
102.41049 62.511635 -2.0942888 -1
107.8261 52.590302 -2.7915766 -1
112.21317 42.379444 -3.4908643 -1
115.56522 32.049068 -4.1879396 -1
0.1 0.1 0.1 -1
0.1 0.1 0.1 -1
115.80168 31.093964 4.8099556 -1
3.8003359 2.2618604 0.25755587 10
115.28302 31.862497 9.7265797 -1
102.69859 60.325207 14.624321 -1
10.916282 2.9925013 2.0602803 6
18.3388 10.669152 5.6849604 3
102.81517 61.87532 0.69742966 -1
108.22895 51.831402 0 -1
112.45733 41.867195 -0.69742966 -1
115.80553 31.420261 -1.3594428 -1
102.75179 61.886047 3.4908643 -1
108.03555 52.156654 2.8290563 -1
112.42748 41.900776 2.0942888 -1
115.79371 31.460453 1.434417 -1
0.1 0.1 0.1 -1
0.1 0.1 0.1 -1
0.1 0.1 0.1 -1
102.49592 61.36684 -11.344498 -1
102.97755 61.119293 -7.7495198 -1
108.20304 51.193562 -8.4451542 -1
112.34235 41.178177 -9.1407118 -1
115.61519 30.61162 -9.8008928 -1
102.68849 61.896782 -4.8848734 -1
108.10268 51.794128 -5.583735 -1
112.32699 41.751717 -6.2803149 -1
115.63347 31.308584 -6.9766822 -1
102.62807 62.153774 -2.0942888 -1
108.00902 52.213596 -2.7915766 -1
112.36042 41.987492 -3.4908643 -1
115.67638 31.645477 -4.1879396 -1
0.1 0.1 0.1 -1
0.1 0.1 0.1 -1
115.90952 30.68955 4.8099556 -1
3.808208 2.2485809 0.25755587 9
115.39354 31.45989 9.7265797 -1
11.268484 6.5663157 1.6013632 4
10.912415 2.950526 2.0575943 7
18.334103 10.580933 5.6720195 4
103.03053 61.516048 0.69742966 -1
108.40922 51.453297 0 -1
112.60279 41.474392 -0.69742966 -1
115.9145 31.015833 -1.3594428 -1
102.96719 61.527 3.4908643 -1
108.21695 51.779224 2.8290563 -1
112.57306 41.508076 2.0942888 -1
115.90282 31.056067 1.434417 -1
0.1 0.1 0.1 -1
0.1 0.1 0.1 -1
0.1 0.1 0.1 -1
102.7095 61.00869 -11.344498 -1
103.19028 60.75946 -7.7495198 -1
108.38108 50.815552 -8.4451542 -1
112.48541 40.785778 -9.1407118 -1
115.72134 30.207861 -9.8008928 -1
102.90393 61.537952 -4.8848734 -1
108.28282 51.416462 -5.583735 -1
112.47205 41.359367 -6.2803149 -1
115.74205 30.904758 -6.9766822 -1
102.84441 61.795155 -2.0942888 -1
108.19061 51.836258 -2.7915766 -1
112.5063 41.595024 -3.4908643 -1
115.78614 31.241497 -4.1879396 -1
0.1 0.1 0.1 -1
0.1 0.1 0.1 -1
116.01594 30.284763 4.8099556 -1
3.8117268 2.2327511 0.25726515 8
115.50266 31.0569 9.7265797 -1
11.26126 6.5095558 1.5970978 4
10.908388 2.9086146 2.054908 5
100.5937 57.587242 31.058285 -1
103.24463 61.156033 0.69742966 -1
108.58817 51.074562 0 -1
112.74688 41.081081 -0.69742966 -1
116.02206 30.611027 -1.3594428 -1
103.18134 61.167202 3.4908643 -1
108.39703 51.401161 2.8290563 -1
112.71726 41.114868 2.0942888 -1
116.01052 30.6513 1.434417 -1
0.1 0.1 0.1 -1
0.1 0.1 0.1 -1
0.1 0.1 0.1 -1
102.92184 60.649796 -11.344498 -1
103.40173 60.398888 -7.7495198 -1
108.5578 50.43692 -8.4451542 -1
112.6271 40.392883 -9.1407118 -1
115.82607 29.803736 -9.8008928 -1
103.11811 61.178375 -4.8848734 -1
108.46164 51.038174 -5.583735 -1
112.61573 40.966515 -6.2803149 -1
115.84922 30.500555 -6.9766822 -1
103.05949 61.435787 -2.0942888 -1
108.3709 51.458286 -2.7915766 -1
112.65081 41.202049 -3.4908643 -1
115.89449 30.837139 -4.1879396 -1
0.1 0.1 0.1 -1
0.1 0.1 0.1 -1
116.12094 29.879608 4.8099556 -1
3.8151815 2.2169244 0.25697446 7
115.61036 30.65353 9.7265797 -1
11.266693 6.4603329 1.5946604 4
10.904202 2.8667672 2.052222 6
100.79411 57.235752 31.058285 -1
103.45747 60.795269 0.69742966 -1
108.76579 50.69521 0 -1
112.88959 40.687271 -0.69742966 -1
116.1282 30.205847 -1.3594428 -1
103.39422 60.80666 3.4908643 -1
108.5758 51.022472 2.8290563 -1
112.86009 40.721161 2.0942888 -1
116.11681 30.246162 1.434417 -1
0.1 0.1 0.1 -1
0.1 0.1 0.1 -1
0.1 0.1 0.1 -1
103.13292 60.290161 -11.344498 -1
103.61194 60.037582 -7.7495198 -1
108.7332 50.057674 -8.4451542 -1
112.7674 39.999493 -9.1407118 -1
115.92941 29.399244 -9.8008928 -1
103.33103 60.818054 -4.8848734 -1
108.63913 50.65926 -5.583735 -1
112.75804 40.573162 -6.2803149 -1
115.95498 30.09598 -6.9766822 -1
103.27332 61.075665 -2.0942888 -1
108.54987 51.079689 -2.7915766 -1
112.79395 40.808575 -3.4908643 -1
116.00142 30.432404 -4.1879396 -1
0.1 0.1 0.1 -1
0.1 0.1 0.1 -1
116.22453 29.474089 4.8099556 -1
3.8228967 2.2035935 0.25697446 7
115.71665 30.249788 9.7265797 -1
11.297803 6.4258723 1.5958791 4
10.899858 2.8249846 2.0495358 6
11.252335 6.3377776 3.4604106 3
103.66906 60.433762 0.69742966 -1
108.94208 50.315235 0 -1
113.03093 40.292965 -0.69742966 -1
116.23293 29.800301 -1.3594428 -1
103.60584 60.445377 3.4908643 -1
108.75323 50.643158 2.8290563 -1
113.00155 40.326958 2.0942888 -1
116.22167 29.840654 1.434417 -1
0.1 0.1 0.1 -1
0.1 0.1 0.1 -1
0.1 0.1 0.1 -1
103.34274 59.92979 -11.344498 -1
103.82088 59.675545 -7.7495198 -1
108.90727 49.677822 -8.4451542 -1
112.90634 39.605618 -9.1407118 -1
116.03132 28.994396 -9.8008928 -1
103.54269 60.456993 -4.8848734 -1
108.81531 50.279732 -5.583735 -1
112.89898 40.179317 -6.2803149 -1
116.05933 29.691038 -6.9766822 -1
103.48588 60.714802 -2.0942888 -1
108.7275 50.700466 -2.7915766 -1
112.93571 40.4146 -3.4908643 -1
116.10694 30.027298 -4.1879396 -1
0.1 0.1 0.1 -1
0.1 0.1 0.1 -1
116.32671 29.068211 4.8099556 -1
3.8262322 2.187758 0.25668377 6
115.82154 29.845678 9.7265797 -1
11.268297 6.3571348 1.5885669 4
10.895353 2.783267 2.0468497 6
11.244875 6.2819729 3.4513519 3
103.87938 60.071522 0.69742966 -1
109.11705 49.93465 0 -1
113.17089 39.89817 -0.69742966 -1
116.33624 29.39439 -1.3594428 -1
103.8162 60.083355 3.4908643 -1
108.92935 50.263233 2.8290563 -1
113.14163 39.932262 2.0942888 -1
116.32513 29.434784 1.434417 -1
0.1 0.1 0.1 -1
0.1 0.1 0.1 -1
0.1 0.1 0.1 -1
103.55131 59.568695 -11.344498 -1
104.02855 59.312778 -7.7495198 -1
109.08002 49.297359 -8.4451542 -1
113.04391 39.211262 -9.1407118 -1
116.13182 28.589195 -9.8008928 -1
103.7531 60.095192 -4.8848734 -1
108.99015 49.899586 -5.583735 -1
113.03854 39.784981 -6.2803149 -1
116.16226 29.285734 -6.9766822 -1
103.69718 60.353199 -2.0942888 -1
108.90382 50.320629 -2.7915766 -1
113.0761 40.020134 -3.4908643 -1
116.21105 29.621826 -4.1879396 -1
0.1 0.1 0.1 -1
0.1 0.1 0.1 -1
116.42747 28.661976 4.8099556 -1
3.8338456 2.1743886 0.25668377 6
115.92502 29.441204 9.7265797 -1
11.286088 6.3153391 1.5879575 4
