# .PCD v0.7 - Point Cloud Data file format
VERSION 0.7
FIELDS x y z intensity
SIZE 4 4 4 4
TYPE F F F F
COUNT 1 1 1 1
WIDTH 1471
HEIGHT 1
VIEWPOINT 0 0 0 1 0 0 0
POINTS 1471
DATA ascii
0.1 0.1 0.1 -1
0.1 0.1 0.1 -1
5.1660676 4.5882621 0.27717367 7
0.91316408 1.4245859 0.098545641 65
5.2231712 4.7079191 0.57184184 20
0.91873795 1.4152731 0.20717788 31
11.516957 10.337204 2.8168807 76
12.404816 18.934898 6.0654244 22
0.93448764 1.4736537 0.01014179 18
1.0181123 1.3111244 0 65
0.91386235 0.9799974 -0.0077879643 85
89.507195 79.916298 -1.3594428 -1
0.90684313 1.4311635 0.049308456 15
0.98317313 1.2743742 0.037956506 117
3.7081172 3.9792528 0.094941095 16
89.478638 79.946953 1.434417 -1
0.1 0.1 0.1 -1
0.1 0.1 0.1 -1
0.57617891 0.90129238 -0.1486268 18
0.70625246 1.1081674 -0.12478948 32
0.86328357 1.3431549 -0.10332693 17
0.9940421 1.2677488 -0.11365771 85
0.90931988 0.96528429 -0.10130955 50
89.698799 79.107956 -9.8008928 -1
0.93270063 1.4731085 -0.0710342 17
1.0596573 1.3651177 -0.080498844 43
0.93017381 0.99644279 -0.071438581 12
89.40329 79.739433 -6.9766822 -1
0.93290824 1.480287 -0.030541711 13
1.0496411 1.3620031 -0.040012598 44
0.91569763 0.98437387 -0.039126769 62
89.290924 80.059921 -4.1879396 -1
0.1 0.1 0.1 -1
0.1 0.1 0.1 -1
89.927147 79.309341 4.8099556 -1
0.91813129 1.4213897 0.098545641 79
5.2581401 4.7062764 0.57386822 17
0.9209559 1.4079044 0.20656854 41
11.508904 10.257663 2.8061359 72
12.398995 18.782656 6.0304837 52
0.93962592 1.4703827 0.01014179 17
0.982638 1.2563628 0 85
0.91385496 0.97315669 -0.0077589047 85
89.785606 79.603371 -1.3594428 -1
0.91183329 1.4279894 0.049308456 16
0.98761559 1.2709346 0.037956506 114
3.7083011 3.9517028 0.094592042 16
89.757164 79.634125 1.434417 -1
0.1 0.1 0.1 -1
0.51963675 0.81598055 -0.25328523 6
0.5793215 0.89927566 -0.1486268 17
0.72625536 1.1308248 -0.1276256 40
0.8706792 1.3443211 -0.10364982 19
1.0015526 1.2681855 -0.11400958 82
0.90925264 0.95848733 -0.10092869 50
89.974388 78.794365 -9.8008928 -1
0.93783706 1.4698439 -0.0710342 16
1.0613396 1.3574758 -0.080266193 44
0.93022645 0.98955172 -0.071176901 11
89.681091 79.426872 -6.9766822 -1
0.9380697 1.4770215 -0.030541711 15
1.0574541 1.3622795 -0.040128917 44
0.91571134 0.97752404 -0.038981318 59
89.569847 79.747749 -4.1879396 -1
0.1 0.1 0.1 -1
0.1 0.1 0.1 -1
5.3220029 4.6607027 0.28378737 9
0.92308724 1.4181762 0.098545641 87
5.296886 4.7077575 0.57629985 17
0.92040247 1.3963939 0.20534985 30
11.504119 10.181564 2.7962868 72
11.314327 17.010101 5.4740229 7
0.94475281 1.4670938 0.01014179 16
0.98082936 1.2450697 0 91
0.9103756 0.96269518 -0.0077007855 79
90.062927 79.289474 -1.3594428 -1
0.91681236 1.4247978 0.049308456 17
0.98896503 1.2635431 0.037838627 112
82.407509 87.204453 2.0942888 -1
90.034592 79.320328 1.434417 -1
0.1 0.1 0.1 -1
0.53815633 0.83858657 -0.26088378 40
0.58245701 0.89724797 -0.1486268 17
0.73290271 1.1324617 -0.12809829 41
0.87536645 1.3412738 -0.10364982 18
1.0059732 1.2646817 -0.11400958 77
0.90570539 0.94809777 -0.10016696 50
90.248886 78.479813 -9.8008928 -1
0.94296205 1.4665612 -0.0710342 15
1.0660716 1.3537627 -0.080266193 44
0.9302423 0.98267251 -0.070915222 11
89.957794 79.113342 -6.9766822 -1
0.94321978 1.473738 -0.030541711 16
1.0652817 1.362518 -0.040245231 45
0.9156884 0.97068614 -0.038835865 50
89.847672 79.434608 -4.1879396 -1
0.1 0.1 0.1 -1
0.1 0.1 0.1 -1
5.3533192 4.65521 0.28458902 10
0.92803198 1.4149454 0.098545641 95
5.3244963 4.699132 0.57751566 16
0.91703433 1.3807704 0.2035218 97
11.491553 10.099131 2.7846467 71
11.346746 16.930386 5.461082 52
0.94986814 1.4637871 0.01014179 19
0.98516947 1.2416384 0 88
0.91028243 0.95589072 -0.0076717259 91
90.339149 78.974617 -1.3594428 -1
0.92178023 1.4215889 0.049308456 23
0.99336964 1.2600833 0.037838627 117
82.711411 86.916267 2.0942888 -1
90.310921 79.005569 1.434417 -1
0.1 0.1 0.1 -1
0.55421329 0.85701126 -0.26721591 40
0.58558547 0.89520931 -0.1486268 22
0.7531653 1.1549126 -0.13093442 31
0.88278461 1.3423789 -0.10397273 23
1.0135001 1.2650549 -0.11436146 72
0.90555304 0.94133759 -0.099786103 52
90.522278 78.164307 -9.8008928 -1
0.94807553 1.4632607 -0.0710342 18
1.0707906 1.3500333 -0.080266193 44
0.92677629 0.97219115 -0.070391864 11
90.233398 78.798851 -6.9766822 -1
0.9483583 1.4704366 -0.030541711 19
1.0607536 1.3470097 -0.039896283 44
0.91562891 0.96386033 -0.038690411 50
90.124405 79.120499 -4.1879396 -1
0.1 0.1 0.1 -1
0.1 0.1 0.1 -1
5.4073501 4.6691465 0.28659317 9
0.93571752 1.4158616 0.098836333 97
5.3596067 4.6969404 0.57954204 14
0.91632849 1.369312 0.20230311 129
11.489673 10.026612 2.7756929 75
11.3328 16.782606 5.4261413 45
0.95497197 1.4604625 0.01014179 18
0.9894976 1.238192 0 79
0.90669227 0.94548994 -0.0076136072 87
90.614273 78.658791 -1.3594428 -1
0.92673689 1.4183626 0.049308456 25
0.99776208 1.2566081 0.037838627 117
83.014297 86.627022 2.0942888 -1
90.586151 78.689842 1.434417 -1
0.1 0.1 0.1 -1
0.57040524 0.87533385 -0.27354804 39
0.58870673 0.89315981 -0.1486268 17
0.75445861 1.1481167 -0.13046172 30
0.887465 1.3392892 -0.10397273 24
1.0179098 1.2615094 -0.11436146 77
0.90536457 0.9345901 -0.099405237 51
90.794571 77.847855 -9.8008928 -1
0.95863986 1.4683088 -0.071441278 16
1.0817314 1.3540918 -0.080731504 71
0.92670637 0.96534818 -0.070130184 10
90.507912 78.483398 -6.9766822 -1
0.95348531 1.4671172 -0.030541711 16
1.0685554 1.3472151 -0.040012598 44
0.91553301 0.95704681 -0.03854496 51
90.400032 78.805428 -4.1879396 -1
0.1 0.1 0.1 -1
0.1 0.1 0.1 -1
5.4880919 4.7055254 0.29000023 9
0.9406541 1.4125867 0.098836333 97
5.3910069 4.6912889 0.58116311 13
0.91277945 1.3537608 0.20047507 129
11.476273 9.9445658 2.7640529 74
11.315245 16.631138 5.3899064 35
0.96006411 1.4571202 0.01014179 18
0.99381369 1.2347305 0 64
0.90304065 0.93512595 -0.007555488 91
90.88829 78.34201 -1.3594428 -1
0.92893392 1.4109446 0.049163003 22
1.0021424 1.2531177 0.037838627 118
83.316177 86.336716 2.0942888 -1
90.860283 78.373161 1.434417 -1
0.1 0.1 0.1 -1
0.57876706 0.88142389 -0.27608088 40
0.5945608 0.89522487 -0.1493149 17
0.75846165 1.1454761 -0.13046172 27
0.89213461 1.3361832 -0.10397273 25
1.0254526 1.2618192 -0.11471335 82
0.90514004 0.92785543 -0.099024378 52
91.065758 77.530449 -9.8008928 -1
0.95277631 1.448259 -0.070627131 16
1.0958444 1.3619817 -0.081429467 49
0.92659998 0.95851749 -0.069868505 11
90.781319 78.166992 -6.9766822 -1
0.9586007 1.46378 -0.030541711 16
1.0607718 1.3278551 -0.039547335 43
0.91540074 0.95024574 -0.038399506 56
90.674568 78.489388 -4.1879396 -1
0.1 0.1 0.1 -1
0.1 0.1 0.1 -1
91.297592 77.727821 4.8099556 -1
0.94279808 1.4051496 0.098545641 88
5.4224334 4.6854753 0.58278424 13
0.91471064 1.3464613 0.19986573 130
11.481086 9.8787785 2.7568898 74
11.29677 16.48 5.353672 61
0.96514452 1.45376 0.01014179 16
0.99496901 1.2273698 0 75
0.89932781 0.92479908 -0.0074973688 89
91.161201 78.024269 -1.3594428 -1
0.93385339 1.4076935 0.049163003 17
1.0096461 1.2535048 0.037956506 116
83.617043 86.045364 2.0942888 -1
91.133301 78.055519 1.434417 -1
0.1 0.1 0.1 -1
0.58717829 0.88746607 -0.27861375 15
0.59768206 0.89314401 -0.1493149 21
0.76245552 1.1428217 -0.13046172 18
0.89679331 1.333061 -0.10397273 23
1.029851 1.258232 -0.11471335 76
0.90487963 0.9211337 -0.098643512 48
91.335838 77.212097 -9.8008928 -1
0.94126409 1.4199401 -0.069405913 17
75.469162 93.130165 -5.583735 -1
0.92645729 0.95169944 -0.069606818 10
91.053619 77.849625 -6.9766822 -1
0.96370441 1.4604249 -0.030541711 16
1.0434657 1.2968824 -0.038733128 47
0.91175216 0.93987006 -0.038108602 56
90.94799 78.172394 -4.1879396 -1
0.1 0.1 0.1 -1
0.1 0.1 0.1 -1
91.568359 77.408661 4.8099556 -1
0.94769722 1.4018501 0.098545641 75
5.4652305 4.6892352 0.58562112 14
0.91660208 1.3391649 0.19925638 134
11.537939 9.8578138 2.7622621 79
11.304826 16.368935 5.3303781 85
0.97021323 1.4503821 0.01014179 17
0.99924725 1.2238892 0 87
0.8990522 0.91808188 -0.0074683093 96
91.433006 77.705582 -1.3594428 -1
0.93876147 1.4044251 0.049163003 17
1.0140154 1.2499728 0.037956506 116
83.916885 85.75296 2.0942888 -1
91.405212 77.736931 1.434417 -1
0.1 0.1 0.1 -1
0.59295559 0.88943565 -0.27988017 16
0.60356474 0.89515847 -0.15000299 18
0.76921701 1.1442842 -0.13093442 26
0.90424061 1.3340526 -0.10429562 25
1.0405817 1.2623266 -0.11541711 71
0.90458333 0.91442519 -0.098262653 49
91.604797 76.892799 -9.8008928 -1
0.92956591 1.3917195 -0.068184696 22
75.793785 92.866158 -5.583735 -1
0.9227829 0.94132841 -0.06908346 10
91.324814 77.531319 -6.9766822 -1
0.96879637 1.4570521 -0.030541711 15
1.0259566 1.266047 -0.037918918 49
0.91153491 0.9331066 -0.037963148 57
91.220314 77.854454 -4.1879396 -1
0.1 0.1 0.1 -1
0.1 0.1 0.1 -1
91.838005 77.088554 4.8099556 -1
0.95258486 1.3985335 0.098545641 71
5.4967399 4.6830573 0.58724225 15
0.91845369 1.3318716 0.19864704 130
11.602288 9.8429375 2.7694252 77
11.372929 16.34523 5.3355546 94
0.97527009 1.4469867 0.01014179 18
1.0035133 1.2203938 0 89
0.89523 0.9078179 -0.0074101901 93
91.70369 77.385948 -1.3594428 -1
0.94365811 1.4011396 0.049163003 17
1.0183724 1.2464256 0.037956506 114
84.215706 85.459511 2.0942888 -1
91.676003 77.417389 1.434417 -1
0.1 0.1 0.1 -1
0.5960567 0.88736045 -0.27988017 16
0.60668576 0.8930462 -0.15000299 18
0.77320665 1.1415921 -0.13093442 23
0.9088918 1.3308882 -0.10429562 22
1.0417958 1.2548492 -0.11506523 71
0.90776974 0.91126204 -0.098262653 49
91.87265 76.572571 -9.8008928 -1
0.92605031 1.3760321 -0.067574084 24
76.117485 92.601028 -5.583735 -1
0.92255533 0.93454814 -0.06882178 10
91.594887 77.212059 -6.9766822 -1
0.97387654 1.4536614 -0.030541711 14
1.0303698 1.2624581 -0.037918918 48
0.90777665 0.92279321 -0.037672244 60
91.491516 77.535561 -4.1879396 -1
0.1 0.1 0.1 -1
0.1 0.1 0.1 -1
92.106537 76.767509 4.8099556 -1
0.95746082 1.3951998 0.098545641 88
91.313507 77.247894 9.7265797 -1
0.92026561 1.324582 0.19803768 122
11.621527 9.7897015 2.7658436 45
11.446548 16.329161 5.3433194 89
0.98031509 1.4435735 0.01014179 16
1.0077672 1.2168834 0 87
0.89487034 0.90113962 -0.0073811305 88
91.973259 77.065376 -1.3594428 -1
0.94854325 1.3978372 0.049163003 25
1.0195409 1.2390034 0.037838627 112
84.513504 85.165024 2.0942888 -1
91.945686 77.096909 1.434417 -1
0.1 0.1 0.1 -1
0.6018616 0.88928014 -0.28114659 16
0.60979939 0.89092302 -0.15000299 19
0.77718681 1.1388862 -0.13093442 19
0.9163602 1.3318179 -0.10461852 23
1.0461698 1.251205 -0.11506523 69
0.90741432 0.90456808 -0.097881787 48
92.139374 76.251411 -9.8008928 -1
0.92243665 1.3603865 -0.066963471 25
76.440262 92.334763 -5.583735 -1
0.91525131 0.9206987 -0.068036743 9
91.863853 76.891861 -6.9766822 -1
0.97894484 1.4502531 -0.030541711 15
0.99033225 1.2047925 -0.036290497 41
0.90747494 0.91606826 -0.03752679 59
91.761612 77.215721 -4.1879396 -1
0.1 0.1 0.1 -1
0.1 0.1 0.1 -1
92.37394 76.445534 4.8099556 -1
0.96232516 1.3918492 0.098545641 89
91.582596 76.928673 9.7265797 -1
0.92488366 1.3213615 0.19803768 131
11.651855 9.7459192 2.7649484 7
11.52298 16.316721 5.3523779 92
0.98252475 1.4360163 0.01011273 16
1.0120088 1.2133583 0 82
0.89447498 0.89447498 -0.0073520709 90
92.241707 76.743858 -1.3594428 -1
0.95341682 1.3945177 0.049163003 20
1.0302389 1.2431345 0.038074382 111
3.759922 3.7625477 0.092846803 9
92.214241 76.77549 1.434417 -1
0.1 0.1 0.1 -1
0.60496211 0.88717383 -0.28114659 15
0.61290556 0.888789 -0.15000299 18
0.78397757 1.1402681 -0.1314071 24
0.92100352 1.3286111 -0.10461852 20
1.0376804 1.232285 -0.11365771 56
0.91056633 0.90139508 -0.097881787 48
92.404984 75.929321 -9.8008928 -1
0.92436153 1.3530332 -0.066759937 27
76.762108 92.067375 -5.583735 -1
0.91492701 0.9139694 -0.067775063 9
92.131691 76.570732 -6.9766822 -1
0.98400122 1.4468272 -0.030541711 20
0.99134409 1.1974778 -0.036174182 46
0.90360761 0.90581828 -0.037235886 49
92.030586 76.894943 -4.1879396 -1
0.1 0.1 0.1 -1
0.1 0.1 0.1 -1
92.640221 76.12262 4.8099556 -1
0.96717775 1.3884815 0.098545641 98
91.850571 76.608528 9.7265797 -1
0.92663044 1.3140693 0.19742833 130
90.822311 75.428917 21.489235 -1
11.602264 16.30788 5.3627305 97
0.98469371 1.4284613 0.010083671 16
1.019454 1.2136468 0 84
0.88694847 0.8807779 -0.0072648921 101
92.509033 76.421402 -1.3594428 -1
0.95827878 1.3911811 0.049163003 19
1.0345719 1.2395307 0.038074382 107
3.7765789 3.7529242 0.092934065 6
92.481674 76.453133 1.434417 -1
0.1 0.1 0.1 -1
0.60805523 0.88505673 -0.28114659 15
0.61600429 0.88664412 -0.15000299 21
0.78795308 1.1375245 -0.1314071 20
0.92849255 1.3294789 -0.10494141 19
77.422325 91.293274 -8.4451542 -1
0.91015196 0.89471614 -0.09750092 47
92.669464 75.606308 -9.8008928 -1
0.95740443 1.3909508 -0.068795301 19
77.083015 91.798859 -5.583735 -1
0.89684278 0.88967121 -0.066204987 8
92.398415 76.248665 -6.9766822 -1
0.98904556 1.4433836 -0.030541711 16
1.0211263 1.2247242 -0.037104707 55
0.90322196 0.89913255 -0.037090432 49
92.298439 76.573227 -4.1879396 -1
0.1 0.1 0.1 -1
0.1 0.1 0.1 -1
92.90538 75.798782 4.8099556 -1
0.97201854 1.385097 0.098545641 88
92.117424 76.287437 9.7265797 -1
0.93121177 1.3108267 0.19742833 127
91.085052 75.111427 21.489235 -1
11.681626 16.298687 5.3730836 89
0.98967397 1.4250153 0.010083671 18
1.0236841 1.2100809 0 80
0.89357758 0.8811872 -0.0072939517 97
92.77523 76.098022 -1.3594428 -1
0.9631291 1.3878275 0.049163003 28
1.0453252 1.2435645 0.038310137 201
3.7825394 3.7326956 0.092759542 8
92.747986 76.129852 1.434417 -1
0.1 0.1 0.1 -1
0.61114097 0.88292885 -0.28114659 16
0.6190955 0.88448846 -0.15000299 21
0.79191899 1.1347672 -0.1314071 20
0.93312764 1.3262297 -0.10494141 17
0.91669041 1.0733066 -0.099582449 115
0.89186478 0.87063837 -0.095215745 42
92.932816 75.282364 -9.8008928 -1
0.98787606 1.4245483 -0.070627131 17
1.012689 1.1975075 -0.073053867 13
0.91417122 0.90055162 -0.067251705 8
92.664009 75.925667 -6.9766822 -1
0.99407792 1.4399223 -0.030541711 16
1.0253952 1.2211524 -0.037104707 78
0.89924639 0.88894701 -0.036799528 48
92.565163 76.25058 -4.1879396 -1
0.1 0.1 0.1 -1
0.1 0.1 0.1 -1
93.169395 75.474022 4.8099556 -1
0.97972912 1.3857714 0.098836333 95
92.383156 75.965424 9.7265797 -1
0.93578172 1.3075682 0.19742833 117
11.551549 9.4582005 2.7174928 5
11.761065 16.289137 5.3834362 88
0.99464214 1.4215521 0.010083671 18
1.0311445 1.2103062 0 67
0.89307576 0.87456441 -0.0072648921 50
93.040291 75.773712 -1.3594428 -1
0.97083145 1.3885531 0.049308456 24
77.513329 91.562439 2.8290563 -1
85.694359 83.97673 2.0942888 -1
93.013161 75.805634 1.434417 -1
0.1 0.1 0.1 -1
0.61421925 0.88079017 -0.28114659 15
0.62217915 0.88232207 -0.15000299 20
0.79587525 1.1319959 -0.1314071 18
0.94063675 1.3270351 -0.10526431 18
0.93344098 1.0852253 -0.10098998 102
0.89489847 0.86751986 -0.095215745 32
93.19503 74.957512 -9.8008928 -1
0.99570388 1.4251866 -0.070830666 16
1.0233397 1.2015702 -0.073519178 13
0.91373986 0.89386344 -0.066990025 7
92.928474 75.601753 -6.9766822 -1
0.99624354 1.4323394 -0.030454449 15
1.0296515 1.2175657 -0.037104707 66
0.89521074 0.87880021 -0.03650862 46
92.830765 75.927002 -4.1879396 -1
0.1 0.1 0.1 -1
0.1 0.1 0.1 -1
93.432281 75.148338 4.8099556 -1
0.9816646 1.3782773 0.098545641 97
92.647766 75.642487 9.7265797 -1
0.94034028 1.3042938 0.19742833 115
11.580677 9.4147177 2.7165976 9
11.84058 16.279228 5.3937888 93
0.99959826 1.4180715 0.010083671 18
1.0321071 1.2029048 0 59
0.89612311 0.87144166 -0.0072648921 39
93.30423 75.448479 -1.3594428 -1
0.97567248 1.3851559 0.049308456 20
77.832466 91.291313 2.8290563 -1
85.986969 83.677094 2.0942888 -1
93.277206 75.480499 1.434417 -1
0.1 0.1 0.1 -1
0.62007058 0.88259864 -0.28241301 15
0.62525523 0.88014489 -0.15000299 28
0.80269885 1.1332728 -0.13187979 17
0.94526321 1.3237435 -0.10526431 18
0.9274267 1.0706507 -0.099934325 106
86.200439 82.981514 -9.1407118 -1
93.456116 74.631744 -9.8008928 -1
1.0035481 1.4257876 -0.0710342 17
78.040085 90.986633 -5.583735 -1
0.90969151 0.88371009 -0.066466667 6
93.191811 75.276909 -6.9766822 -1
1.0012373 1.4288532 -0.030454449 17
1.0436184 1.2253807 -0.037453655 53
0.88395774 0.86171514 -0.035926811 42
93.095238 75.602501 -4.1879396 -1
0.1 0.1 0.1 -1
0.1 0.1 0.1 -1
93.694031 74.821739 4.8099556 -1
0.9661001 1.3464532 0.096510775 101
1.064608 0.8630259 0.11145039 17
0.9448874 1.3010033 0.19742833 124
11.567537 9.3371592 2.705853 15
11.917315 16.26507 5.4028478 92
1.0045421 1.4145736 0.010083671 20
1.0493761 1.2144278 0 54
86.319321 83.357597 -0.69742966 -1
93.567024 75.12233 -1.3594428 -1
0.98339397 1.3858176 0.04945391 17
78.150658 91.019066 2.8290563 -1
86.278534 83.376427 2.0942888 -1
93.540115 75.154442 1.434417 -1
0.1 0.1 0.1 -1
0.62314767 0.88042879 -0.28241301 15
0.62832373 0.87795699 -0.15000299 20
0.8066498 1.130464 -0.13187979 17
0.95279193 1.3244863 -0.10558721 19
0.9311583 1.0674068 -0.099934325 106
86.489571 82.680115 -9.1407118 -1
93.716057 74.305069 -9.8008928 -1
1.0085189 1.4222759 -0.0710342 17
0.93049186 1.0772249 -0.066306852 63
86.246048 83.199615 -6.2803149 -1
93.454002 74.951149 -6.9766822 -1
1.0062188 1.4253495 -0.030454449 17
1.0478895 1.2217302 -0.037453655 52
0.87977844 0.85167187 -0.035635907 33
93.358566 75.277077 -4.1879396 -1
0.1 0.1 0.1 -1
0.1 0.1 0.1 -1
93.954636 74.494232 4.8099556 -1
0.95617384 1.3228457 0.095057301 123
1.0559673 0.84993023 0.11023457 17
0.9523533 1.3017024 0.19803768 124
11.553997 9.2598085 2.6951082 31
11.99983 16.258343 5.4144945 87
1.0094738 1.4110584 0.010083671 17
1.0568911 1.2145292 0 50
86.609764 83.055779 -0.69742966 -1
93.828682 74.795258 -1.3594428 -1
0.99113196 1.3864423 0.049599361 20
78.467903 90.74572 2.8290563 -1
86.569046 83.074753 2.0942888 -1
93.80188 74.827461 1.434417 -1
0.1 0.1 0.1 -1
0.62621713 0.87824827 -0.28241301 15
0.63138449 0.87575835 -0.15000299 27
0.81349629 1.1316831 -0.13235247 18
0.95740944 1.3211523 -0.10558721 18
0.93158674 1.060403 -0.099582449 101
86.777649 82.377708 -9.1407118 -1
93.974861 73.977486 -9.8008928 -1
1.0134774 1.4187468 -0.0710342 17
0.90802199 1.0438237 -0.064445607 48
86.53595 82.898056 -6.2803149 -1
93.715065 74.624481 -6.9766822 -1
1.0082906 1.4177545 -0.030367186 15
78.420952 90.787453 -2.7915766 -1
86.473076 83.127739 -3.4908643 -1
93.620766 74.950737 -4.1879396 -1
0.1 0.1 0.1 -1
0.1 0.1 0.1 -1
94.214096 74.165817 4.8099556 -1
0.94609469 1.2993242 0.09360382 126
1.0550345 0.84312785 0.10982929 17
0.9568913 1.2983701 0.19803768 112
11.547757 9.1887913 2.6861544 39
12.085324 16.255116 5.4274354 86
1.0143932 1.4075261 0.010083671 19
0.9358983 1.0679393 0 67
86.899155 82.752945 -0.69742966 -1
94.089188 74.467285 -1.3594428 -1
0.99012405 1.3748629 0.049308456 17
78.78418 90.47126 2.8290563 -1
86.858498 82.772064 2.0942888 -1
94.062508 74.49958 1.434417 -1
0.1 0.1 0.1 -1
0.62927896 0.87605697 -0.28241301 16
0.63443762 0.8735491 -0.15000299 24
0.8174417 1.1288365 -0.13235247 19
0.96495724 1.3218323 -0.10591011 17
0.93197769 1.0534092 -0.099230565 99
87.064674 82.074295 -9.1407118 -1
94.232513 73.649002 -9.8008928 -1
1.0213418 1.4192555 -0.071237743 17
0.89849532 1.0256203 -0.063514985 49
86.824791 82.595482 -6.2803149 -1
93.974983 74.296898 -6.9766822 -1
1.0132334 1.4142263 -0.030367186 16
0.90219915 1.03713 -0.031986818 47
86.762718 82.825386 -3.4908643 -1
93.881821 74.623482 -4.1879396 -1
0.1 0.1 0.1 -1
0.1 0.1 0.1 -1
94.472412 73.836494 4.8099556 -1
0.95062441 1.2960137 0.09360382 128
1.0540673 0.83634239 0.10942402 15
0.96141762 1.2950221 0.19803768 110
11.541162 9.1179314 2.6772006 47
12.141992 16.212831 5.4274354 74
1.0193002 1.4039767 0.010083671 18
0.90653521 1.0271777 0 59
87.187485 82.449112 -0.69742966 -1
94.348557 74.138397 -1.3594428 -1
0.98611259 1.3592621 0.048872098 17
79.09951 90.195702 2.8290563 -1
87.146896 82.468369 2.0942888 -1
94.321983 74.170784 1.434417 -1
0.1 0.1 0.1 -1
0.63233316 0.87385505 -0.28241301 15
0.637483 0.87132913 -0.15000299 29
0.82431054 1.1299976 -0.13282517 17
0.96956539 1.3184559 -0.10591011 18
0.9323312 1.0464256 -0.098878682 95
87.350639 81.769882 -9.1407118 -1
94.489029 73.319618 -9.8008928 -1
1.0262897 1.4156817 -0.071237743 16
0.89876562 1.0187324 -0.063282326 49
87.112572 82.291908 -6.2803149 -1
94.233757 73.968407 -6.9766822 -1
1.0181638 1.4106808 -0.030367186 16
0.88275683 1.007655 -0.031172607 46
87.051308 82.522018 -3.4908643 -1
94.141739 74.295319 -4.1879396 -1
0.1 0.1 0.1 -1
0.1 0.1 0.1 -1
94.729576 73.506271 4.8099556 -1
0.95514256 1.2926875 0.09360382 128
1.0491507 0.8264901 0.10861347 15
0.96593225 1.2916583 0.19803768 115
11.534214 9.0472298 2.6682467 50
12.131615 16.081669 5.3976712 65
1.0241947 1.4004101 0.010083671 17
0.89682883 1.009058 0 59
87.474754 82.144264 -0.69742966 -1
94.606773 73.808609 -1.3594428 -1
0.97905546 1.339671 0.04829029 25
0.9165684 1.0378156 0.032652024 102
87.434235 82.163666 2.0942888 -1
94.580315 73.841087 1.434417 -1
0.1 0.1 0.1 -1
0.63822889 0.87555116 -0.28367946 14
0.64345884 0.87308532 -0.15069108 19
0.8311975 1.1311244 -0.13329785 17
0.97713178 1.3190728 -0.106233 18
0.92931646 1.0357401 -0.098174922 83
87.635536 81.46447 -9.1407118 -1
94.744385 72.989342 -9.8008928 -1
1.0312251 1.4120907 -0.071237743 16
0.89899886 1.0118551 -0.063049674 53
87.399292 81.987328 -6.2803149 -1
94.491379 73.639023 -6.9766822 -1
1.0230818 1.4071181 -0.030367186 17
0.87965482 0.99707073 -0.030939976 46
87.338829 82.217651 -3.4908643 -1
94.400505 73.966255 -4.1879396 -1
0.1 0.1 0.1 -1
0.1 0.1 0.1 -1
94.98558 73.175156 4.8099556 -1
0.95666879 1.2853414 0.093313128 128
1.0441784 0.81668234 0.10780293 15
0.96744913 1.2843146 0.19742833 101
11.526913 8.9766884 2.6592929 45
12.111704 15.939243 5.3640246 61
1.0290768 1.3968265 0.010083671 22
0.90368026 1.0096469 0 71
87.760963 81.838425 -0.69742966 -1
94.863838 73.477921 -1.3594428 -1
0.9718737 1.320146 0.047708478 27
0.9168635 1.0308748 0.032534149 102
87.720512 81.857964 2.0942888 -1
94.837494 73.51049 1.434417 -1
0.1 0.1 0.1 -1
0.64128125 0.87331802 -0.28367946 15
0.64650255 0.87083387 -0.15069108 20
0.83514076 1.1282161 -0.13329785 17
0.98173022 1.3156539 -0.106233 19
0.92958236 1.0287892 -0.097823039 76
87.919365 81.158073 -9.1407118 -1
94.998589 72.65818 -9.8008928 -1
1.0331875 1.4044582 -0.0710342 16
0.90252542 1.0087109 -0.063049674 64
87.684952 81.681747 -6.2803149 -1
94.747849 73.308739 -6.9766822 -1
1.0279874 1.4035383 -0.030367186 16
0.87648982 0.98652047 -0.030707344 50
87.62529 81.912285 -3.4908643 -1
94.658119 73.636284 -4.1879396 -1
0.1 0.1 0.1 -1
0.1 0.1 0.1 -1
95.29126 72.776642 4.8099556 -1
0.96204442 1.2813228 0.093313128 124
1.0436518 0.80924761 0.10739765 20
0.96681529 1.2723482 0.19620964 76
11.525476 8.8982639 2.6503391 40
12.107849 15.796375 5.3329663 61
1.0349188 1.3925036 0.010083671 23
0.90790153 1.0058528 0 73
88.102997 81.470093 -0.69742966 -1
95.170784 73.07991 -1.3594428 -1
0.96249563 1.2960016 0.046981215 65
80.102043 89.306541 2.8290563 -1
88.062622 81.489807 2.0942888 -1
95.144577 73.112595 1.434417 -1
0.1 0.1 0.1 -1
0.6478129 0.87451088 -0.28494588 13
0.65014458 0.86811823 -0.15069108 18
0.83985931 1.1247079 -0.13329785 16
0.9902333 1.3155166 -0.1065559 18
0.92716503 1.017513 -0.097119279 81
88.258545 80.789085 -9.1407118 -1
95.302101 72.259613 -9.8008928 -1
1.0390613 1.4001181 -0.0710342 17
0.90674275 1.0049216 -0.063049674 49
88.026329 81.313736 -6.2803149 -1
95.054092 72.911217 -6.9766822 -1
1.0368283 1.4032408 -0.030454449 20
0.88728577 0.99028611 -0.030939976 50
87.967636 81.544518 -3.4908643 -1
94.965736 73.239136 -4.1879396 -1
0.1 0.1 0.1 -1
0.1 0.1 0.1 -1
95.544716 72.443573 4.8099556 -1
0.96350026 1.2739757 0.093022428 124
1.0425212 0.80255967 0.10699238 13
0.99236488 1.2965518 0.20047507 72
11.521329 8.8310461 2.6422806 34
12.095032 15.666089 5.3032022 60
1.0337803 1.3808775 0.010025552 21
0.90804398 0.99897754 0 50
88.386841 81.162056 -0.69742966 -1
95.425301 72.747253 -1.3594428 -1
0.95803213 1.280628 0.046544857 115
80.4133 89.02639 2.8290563 -1
88.346542 81.181915 2.0942888 -1
95.399208 72.780029 1.434417 -1
0.1 0.1 0.1 -1
0.65086156 0.8722443 -0.28494588 15
0.65615344 0.86979711 -0.15137915 20
0.84677225 1.1257474 -0.13377054 16
0.99481928 1.312052 -0.1065559 18
0.92733902 1.0105956 -0.096767396 60
88.540016 80.480515 -9.1407118 -1
95.553757 71.926506 -9.8008928 -1
1.0439423 1.3964826 -0.0710342 15
0.90688622 0.99805379 -0.062817015 48
88.309631 81.005974 -6.2803149 -1
95.308022 72.578972 -6.9766822 -1
1.0417202 1.399613 -0.030454449 15
0.89408576 0.99089414 -0.03105629 50
88.251747 81.236961 -3.4908643 -1
95.22081 72.907196 -4.1879396 -1
0.1 0.1 0.1 -1
0.1 0.1 0.1 -1
95.797012 72.109619 4.8099556 -1
0.9679414 1.2706047 0.093022428 126
1.0413569 0.7958895 0.1065871 14
1.0120349 1.3127316 0.2035218 89
11.512938 8.7609854 2.6333268 29
12.078488 15.532273 5.2721438 59
1.0325733 1.3692764 0.0099674324 25
0.91152549 0.99580181 0 56
88.669609 80.853035 -0.69742966 -1
95.678658 72.413719 -1.3594428 -1
0.96851212 1.285259 0.046835762 115
80.723564 88.745155 2.8290563 -1
88.629379 80.873032 2.0942888 -1
95.652679 72.446579 1.434417 -1
0.1 0.1 0.1 -1
0.65680856 0.87383354 -0.2862123 15
0.65918559 0.86750138 -0.15137915 19
0.85069668 1.1227847 -0.13377054 17
1.0024216 1.3125368 -0.10687879 19
0.9240911 1.0000262 -0.096063629 59
88.820404 80.170959 -9.1407118 -1
95.804245 71.592522 -9.8008928 -1
1.0488106 1.39283 -0.0710342 16
0.90699285 0.99119735 -0.062584363 48
88.59185 80.69722 -6.2803149 -1
95.560791 72.245842 -6.9766822 -1
1.0465994 1.3959682 -0.030454449 15
0.89417762 0.98406762 -0.030939976 48
88.534775 80.928406 -3.4908643 -1
95.474724 72.574371 -4.1879396 -1
0.1 0.1 0.1 -1
0.1 0.1 0.1 -1
96.048141 71.77478 4.8099556 -1
0.9693321 1.2632581 0.092731737 126
1.0401586 0.78923726 0.10618183 15
1.0348735 1.3327093 0.20717788 96
11.504199 8.6910925 2.624373 26
12.064137 15.402567 5.2423797 63
1.0101278 1.3298299 0.0097058956 26
0.91160709 0.98893756 0 49
88.951302 80.54303 -0.69742966 -1
95.930847 72.079292 -1.3594428 -1
0.9729926 1.2818705 0.046835762 118
81.032852 88.462837 2.8290563 -1
3.7935419 3.4373617 0.089356318 3
95.904984 72.112251 1.434417 -1
0.1 0.1 0.1 -1
0.65985477 0.87153554 -0.2862123 14
0.66220975 0.86519516 -0.15137915 20
0.85461074 1.1198084 -0.13377054 18
1.0100394 1.3129845 -0.10720169 19
0.92417848 0.9931432 -0.095711753 90
89.099716 79.860428 -9.1407118 -1
96.053566 71.257668 -9.8008928 -1
1.0536661 1.3891605 -0.0710342 18
0.90706265 0.98435235 -0.062351707 49
88.873001 80.387482 -6.2803149 -1
95.812393 71.911835 -6.9766822 -1
1.0484531 1.388317 -0.030367186 15
0.89085829 0.97356486 -0.030707344 45
88.816727 80.618874 -3.4908643 -1
95.72747 72.240654 -4.1879396 -1
0.1 0.1 0.1 -1
0.1 0.1 0.1 -1
96.298096 71.439072 4.8099556 -1
0.97373575 1.2598668 0.092731737 124
1.0389267 0.78260314 0.10577656 15
1.0486914 1.3408161 0.20900592 56
11.495113 8.6213675 2.6154189 31
12.049028 15.273151 5.2126155 63
0.99957246 1.3064412 0.0095605981 43
0.91165185 0.98208493 0 54
89.231911 80.23204 -0.69742966 -1
96.181862 71.743996 -1.3594428 -1
0.97746122 1.2784662 0.046835762 92
3.7281361 4.0415578 0.12966508 14
3.7943685 3.4140673 0.089094535 3
96.15612 71.777039 1.434417 -1
0.1 0.1 0.1 -1
0.662893 0.86922687 -0.2862123 15
0.6652258 0.86287832 -0.15137915 19
0.85851443 1.1168184 -0.13377054 18
1.0176725 1.3133949 -0.10752459 17
0.92422915 0.98627174 -0.095359869 98
89.377937 79.548927 -9.1407118 -1
96.301712 70.921944 -9.8008928 -1
1.0585088 1.3854741 -0.0710342 22
0.90369844 0.97385788 -0.061886396 50
89.153061 80.076767 -6.2803149 -1
96.062828 71.57695 -6.9766822 -1
1.0532929 1.3846487 -0.030367186 14
0.88747662 0.96309739 -0.030474713 46
89.097603 80.30835 -3.4908643 -1
95.979057 71.906067 -4.1879396 -1
0.1 0.1 0.1 -1
0.1 0.1 0.1 -1
96.546875 71.102493 4.8099556 -1
0.9781276 1.2564602 0.092731737 122
1.0416521 0.77897185 0.10577656 15
1.0533653 1.3371474 0.20900592 95
11.489627 8.5547495 2.6073606 34
12.033164 15.14403 5.1828513 67
0.97360617 1.2633408 0.0092700021 127
0.91165996 0.9752441 0 50
89.511429 79.920074 -0.69742966 -1
96.431709 71.407822 -1.3594428 -1
0.98191798 1.2750465 0.046835762 92
3.7320151 4.0175323 0.12931144 14
3.8137186 3.4074633 0.089269057 24
96.406082 71.440956 1.434417 -1
0.1 0.1 0.1 -1
0.66886967 0.87074357 -0.28747872 16
0.66823375 0.860551 -0.15137915 21
0.86240762 1.1138148 -0.13377054 19
1.0222509 1.3098346 -0.10752459 18
0.92424309 0.97941214 -0.095007986 100
89.655067 79.236458 -9.1407118 -1
96.548691 70.585358 -9.8008928 -1
1.0633385 1.3817707 -0.0710342 18
0.90027207 0.96339899 -0.061421085 47
89.432037 79.765076 -6.2803149 -1
96.312088 71.241188 -6.9766822 -1
1.0550791 1.3769953 -0.030279925 16
0.88743287 0.95632952 -0.030358396 50
89.377388 79.996857 -3.4908643 -1
96.229469 71.570602 -4.1879396 -1
0.1 0.1 0.1 -1
0.1 0.1 0.1 -1
96.794479 70.765053 4.8099556 -1
0.98250747 1.2530383 0.092731737 121
1.0403636 0.77236044 0.10537128 14
1.0611111 1.3373499 0.20961528 104
11.483816 8.4882755 2.5993021 35
12.019564 15.018977 5.1543813 67
0.99027354 1.2757332 0.0093862405 112
0.91163146 0.9684152 0 49
89.789856 79.607132 -0.69742966 -1
96.680382 71.070778 -1.3594428 -1
0.98329949 1.267662 0.046690308 88
3.7357719 3.9935296 0.12895782 13
3.7919335 3.3642697 0.088483699 26
96.654869 71.104004 1.434417 -1
0.1 0.1 0.1 -1
0.67190504 0.86840343 -0.28747872 16
0.67428464 0.86211413 -0.15206724 21
0.86629027 1.1107978 -0.13377054 20
1.0299004 1.3101809 -0.10784748 17
0.92078477 0.96894902 -0.094304226 98
89.931107 78.923019 -9.1407118 -1
96.794495 70.24791 -9.8008928 -1
1.071216 1.3819991 -0.071237743 19
0.90020669 0.95661324 -0.06118843 47
89.70993 79.452415 -6.2803149 -1
96.560181 70.904564 -6.9766822 -1
1.0568249 1.3693464 -0.030192664 18
0.88393992 0.9459216 -0.030125765 46
89.656082 79.68438 -3.4908643 -1
96.478706 71.234261 -4.1879396 -1
0.1 0.1 0.1 -1
0.1 0.1 0.1 -1
97.040909 70.426743 4.8099556 -1
0.98687541 1.249601 0.092731737 120
1.0430533 0.7687242 0.10537128 15
1.0626746 1.3297609 0.20900592 112
11.477681 8.4219465 2.5912435 35
12.008268 14.897964 5.1272054 62
0.99164104 1.2683299 0.0093571814 108
0.90812659 0.95796978 0 49
90.067184 79.293221 -0.69742966 -1
96.927879 70.732864 -1.3594428 -1
0.98464149 1.2602836 0.046544857 83
82.260086 87.322815 2.8290563 -1
90.027313 79.313919 2.0942888 -1
96.902481 70.766182 1.434417 -1
0.1 0.1 0.1 -1
0.67790556 0.86986798 -0.28874514 9
0.67728984 0.85975522 -0.15206724 17
0.87323719 1.1116813 -0.13424322 21
1.0344675 1.3065779 -0.10784748 20
0.92071301 0.96212548 -0.093952343 82
90.206055 78.60862 -9.1407118 -1
97.039116 69.909607 -9.8008928 -1
1.0791079 1.3821893 -0.071441278 17
0.89666933 0.94621444 -0.060723118 48
89.986725 79.138786 -6.2803149 -1
96.807098 70.56707 -6.9766822 -1
1.0677348 1.3735429 -0.030367186 17
0.88381082 0.93919003 -0.03000945 45
89.933685 79.370941 -3.4908643 -1
96.726776 70.897049 -4.1879396 -1
0.1 0.1 0.1 -1
0.1 0.1 0.1 -1
97.286156 70.087578 4.8099556 -1
0.99123132 1.2461486 0.092731737 119
1.0417081 0.76213598 0.10496601 16
1.0641983 1.3221774 0.20839658 99
11.471225 8.3557644 2.5831852 37
11.996276 14.777216 5.1000295 59
0.99296892 1.2609324 0.0093281213 96
0.90801245 0.95117736 0 49
90.343422 78.978348 -0.69742966 -1
97.174194 70.394089 -1.3594428 -1
0.98594397 1.2529112 0.046399403 90
82.5644 87.035141 2.8290563 -1
90.303619 78.999176 2.0942888 -1
97.148911 70.427498 1.434417 -1
0.1 0.1 0.1 -1
0.68392438 0.87130117 -0.29001158 8
0.68028682 0.85738575 -0.15206724 16
0.87711239 1.1086265 -0.13424322 21
1.0421329 1.3068601 -0.10817038 17
0.917144 0.95172292 -0.093248583 99
90.479904 78.293266 -9.1407118 -1
97.282555 69.57045 -9.8008928 -1
1.0839261 1.3784142 -0.071441278 16
0.89307052 0.93585205 -0.060257807 46
90.262421 78.824196 -6.2803149 -1
97.052834 70.228722 -6.9766822 -1
1.060195 1.3540626 -0.03001814 21
0.88364547 0.93247092 -0.029893134 45
90.210197 79.056526 -3.4908643 -1
96.973663 70.558983 -4.1879396 -1
0.1 0.1 0.1 -1
0.1 0.1 0.1 -1
97.530212 69.747559 4.8099556 -1
0.99557519 1.2426809 0.092731737 117
1.0443622 0.75849509 0.10496601 17
1.0656818 1.3145994 0.20778723 87
11.464445 8.2897301 2.5751266 40
11.986644 14.660472 5.0741472 45
0.99425727 1.2535414 0.0092990622 75
0.90786201 0.94439745 0 48
90.618561 78.662506 -0.69742966 -1
97.419319 70.054459 -1.3594428 -1
0.987207 1.2455453 0.046253949 50
82.867706 86.746407 2.8290563 -1
90.578827 78.683479 2.0942888 -1
97.394157 70.087952 1.434417 -1
0.1 0.1 0.1 -1
0.68696165 0.86890852 -0.29001158 12
0.68636727 0.85887474 -0.15275533 20
0.88407892 1.1094508 -0.13471591 24
1.0466883 1.3032144 -0.10817038 17
0.91698712 0.94493639 -0.0928967 101
90.752647 77.976952 -9.1407118 -1
97.524803 69.230446 -9.8008928 -1
1.0856292 1.3707058 -0.071237743 12
0.89287102 0.92912769 -0.060025152 47
90.537018 78.508636 -6.2803149 -1
97.297386 69.889519 -6.9766822 -1
1.0339583 1.3110991 -0.029145518 22
0.88344407 0.9257645 -0.029776819 45
90.485603 78.74115 -3.4908643 -1
97.219368 70.220047 -4.1879396 -1
0.1 0.1 0.1 -1
0.1 0.1 0.1 -1
97.773079 69.406693 4.8099556 -1
1.0124449 1.2547367 0.093894519 114
1.0470035 0.75484496 0.10496601 16
75.326508 92.26075 14.624321 -1
11.457345 8.2238445 2.5670683 42
11.976344 14.543976 5.0482655 54
0.99550623 1.2461567 0.0092700021 74
0.90419769 0.93403774 0 45
90.892593 78.345711 -0.69742966 -1
97.663261 69.713982 -1.3594428 -1
0.98843068 1.2381856 0.046108499 44
83.170006 86.456619 2.8290563 -1
90.852936 78.366821 2.0942888 -1
97.638214 69.747559 1.434417 -1
0.1 0.1 0.1 -1
0.69300354 0.87028915 -0.291278 14
0.6893611 0.85647362 -0.15275533 21
0.88794619 1.1063581 -0.13471591 26
1.054369 1.3034321 -0.10849328 17
0.90633637 0.92746115 -0.091489173 99
91.024284 77.659691 -9.1407118 -1
97.765869 68.889603 -9.8008928 -1
1.0904073 1.366908 -0.071237743 109
0.8891623 0.918827 -0.059559841 46
90.810509 78.192123 -6.2803149 -1
97.540756 69.549461 -6.9766822 -1
1.0043255 1.2644211 -0.028185636 98
0.8797431 0.91546667 -0.029544188 45
90.759911 78.42482 -3.4908643 -1
97.46389 69.880264 -4.1879396 -1
0.1 0.1 0.1 -1
0.1 0.1 0.1 -1
98.014763 69.06498 4.8099556 -1
1.0231147 1.2589422 0.09447591 109
1.0455793 0.74828529 0.10456073 15
75.648102 91.997253 14.624321 -1
11.449925 8.1581106 2.5590098 41
11.962295 14.424014 5.0210896 61
0.99985003 1.2426741 0.0092700021 97
0.91094279 0.93445611 0 44
91.165512 78.027962 -0.69742966 -1
97.906013 69.372643 -1.3594428 -1
0.99274671 1.2347279 0.046108499 36
83.471291 86.165771 2.8290563 -1
91.125931 78.04921 2.0942888 -1
97.881081 69.406311 1.434417 -1
0.1 0.1 0.1 -1
0.69603723 0.86786479 -0.291278 14
0.69234657 0.85406208 -0.15275533 22
0.89493185 1.1071229 -0.13518861 30
1.0589124 1.2997438 -0.10849328 20
0.91656494 0.93140173 -0.092192933 95
91.294807 77.341484 -9.1407118 -1
98.005745 68.547913 -9.8008928 -1
75.097511 93.469261 -4.8848734 -1
0.88887841 0.91214061 -0.059327185 44
91.082901 77.874664 -6.2803149 -1
97.782928 69.208557 -6.9766822 -1
1.0056101 1.2570039 -0.028098375 97
0.88640946 0.91598231 -0.029660502 44
91.033112 78.107529 -3.4908643 -1
97.707222 69.539627 -4.1879396 -1
0.1 0.1 0.1 -1
0.1 0.1 0.1 -1
98.255241 68.72242 4.8099556 -1
1.033826 1.2630886 0.095057301 26
1.048185 0.74463099 0.10456073 18
75.968765 91.732628 14.624321 -1
11.442187 8.0925293 2.5509512 35
11.95065 14.308035 4.9952078 52
1.0010338 1.2352918 0.009240943 86
0.90369105 0.92056638 0 42
91.437325 77.709259 -0.69742966 -1
98.147575 69.030464 -1.3594428 -1
1.000196 1.2351391 0.046253949 28
83.771553 85.873878 2.8290563 -1
91.39782 77.730644 2.0942888 -1
98.122757 69.064217 1.434417 -1
0.1 0.1 0.1 -1
0.70210177 0.86919266 -0.29254442 13
0.69845569 0.85547632 -0.15344343 36
0.89879096 1.1039922 -0.13518861 23
1.0634428 1.2960395 -0.10849328 20
0.91278911 0.92111117 -0.091489173 63
91.564224 77.022331 -9.1407118 -1
98.244423 68.205391 -9.8008928 -1
75.423317 93.206551 -4.8848734 -1
0.88855869 0.90546745 -0.05909453 41
91.354179 77.556252 -6.2803149 -1
98.023918 68.866806 -6.9766822 -1
1.0162649 1.2612717 -0.028272899 59
0.87215823 0.89498293 -0.029078923 41
91.305206 77.789291 -3.4908643 -1
97.949371 69.198135 -4.1879396 -1
0.1 0.1 0.1 -1
0.1 0.1 0.1 -1
98.49453 68.379028 4.8099556 -1
76.200272 92.438324 6.9766822 -1
1.0507778 0.74096763 0.10456073 28
76.288513 91.466888 14.624321 -1
11.434131 8.0271006 2.5428929 32
11.938343 14.192314 4.9693255 44
1.0053396 1.2317901 0.009240943 77
0.91041404 0.92096215 0 36
91.708023 77.38961 -0.69742966 -1
98.387939 68.687447 -1.3594428 -1
1.010819 1.2393864 0.046544857 25
84.070801 85.58094 2.8290563 -1
91.668594 77.411133 2.0942888 -1
98.363243 68.721291 1.434417 -1
0.1 0.1 0.1 -1
0.70513153 0.86673653 -0.29254442 15
0.70143759 0.85303307 -0.15344343 32
0.90263915 1.1008481 -0.13518861 55
1.064782 1.2884734 -0.10817038 23
0.90190655 0.90379745 -0.090081647 21
91.832527 76.702248 -9.1407118 -1
98.481911 67.862038 -9.8008928 -1
75.748215 92.942703 -4.8848734 -1
0.89171392 0.90236032 -0.05909453 34
91.624344 77.236893 -6.2803149 -1
98.26371 68.524223 -6.9766822 -1
1.014361 1.2499529 -0.028098375 20
0.86827481 0.88479757 -0.028846292 36
91.57618 77.4701 -3.4908643 -1
98.190315 68.855812 -4.1879396 -1
0.1 0.1 0.1 -1
0.1 0.1 0.1 -1
98.73262 68.034798 4.8099556 -1
76.522484 92.171776 6.9766822 -1
1.0533578 0.73729521 0.10456073 37
4.3123541 5.1338019 0.82322741 47
11.425757 7.9618282 2.5348344 48
11.925374 14.076854 4.9434438 64
1.0096333 1.2282733 0.009240943 60
84.660072 85.04512 0 -1
91.977608 77.069016 -0.69742966 -1
98.627106 68.34359 -1.3594428 -1
1.015139 1.2358505 0.046544857 22
84.369019 85.286957 2.8290563 -1
91.938248 77.090675 2.0942888 -1
98.602524 68.377518 1.434417 -1
0.1 0.1 0.1 -1
0.70815271 0.86426991 -0.29254442 16
0.70441097 0.85057938 -0.15344343 30
0.90330684 1.0938525 -0.13471591 51
1.0724649 1.2885838 -0.10849328 20
84.848991 84.435349 -8.4451542 -1
92.099709 76.381226 -9.1407118 -1
98.718193 67.51786 -9.8008928 -1
76.072182 92.677727 -4.8848734 -1
0.8878122 0.89216149 -0.058629218 24
91.893394 76.916588 -6.2803149 -1
98.502304 68.180801 -6.9766822 -1
1.0155543 1.2425337 -0.028011112 25
0.86784446 0.8782059 -0.028729977 18
91.846046 77.149971 -3.4908643 -1
98.430069 68.512642 -4.1879396 -1
0.1 0.1 0.1 -1
0.1 0.1 0.1 -1
98.969505 67.689743 4.8099556 -1
76.843758 91.904099 6.9766822 -1
1.0559251 0.73361379 0.10456073 39
4.3494797 5.1414509 0.82688349 42
11.421114 7.8995099 2.5276713 43
11.911745 13.961658 4.917562 59
1.0139146 1.2247415 0.009240943 51
84.956421 84.749084 0 -1
92.246071 76.747482 -0.69742966 -1
98.865067 67.998901 -1.3594428 -1
1.016261 1.2284485 0.046399403 17
3.74648 3.7608931 0.12518574 7
92.206787 76.769287 2.0942888 -1
98.840607 68.032913 1.434417 -1
0.1 0.1 0.1 -1
0.71116531 0.86179274 -0.29254442 19
0.7105478 0.85191858 -0.1541315 32
0.90393668 1.0868658 -0.13424322 26
1.0609303 1.2657127 -0.10687879 11
85.143204 84.138657 -8.4451542 -1
92.365768 76.059273 -9.1407118 -1
98.95327 67.172859 -9.8008928 -1
76.395226 92.411621 -4.8848734 -1
84.849617 84.672096 -5.583735 -1
92.161324 76.595352 -6.2803149 -1
98.7397 67.836548 -6.9766822 -1
1.0167081 1.2351214 -0.02792385 59
84.622322 85.036873 -2.7915766 -1
92.114792 76.828896 -3.4908643 -1
98.668625 68.16864 -4.1879396 -1
0.1 0.1 0.1 -1
0.1 0.1 0.1 -1
99.205185 67.343864 4.8099556 -1
4.1379242 4.9139433 0.37412459 49
1.0584794 0.72992343 0.10456073 34
77.242149 90.663002 14.624321 -1
11.41212 7.8345375 2.5196128 19
11.900606 13.850393 4.8929739 54
1.0181836 1.2211949 0.009240943 46
85.251732 84.452011 0 -1
92.513405 76.425018 -0.69742966 -1
99.101822 67.653381 -1.3594428 -1
1.0301404 1.236413 0.046835762 41
3.7843657 3.7724955 0.12601088 4
92.474197 76.446953 2.0942888 -1
99.077484 67.687477 1.434417 -1
0.1 0.1 0.1 -1
0.71726084 0.86302495 -0.29381084 15
0.71351725 0.84943312 -0.1541315 30
0.9077251 1.0837038 -0.13424322 34
1.0428121 1.2353128 -0.10461852 33
85.436386 83.840942 -8.4451542 -1
92.630699 75.736389 -9.1407118 -1
99.187141 66.827034 -9.8008928 -1
76.717339 92.144386 -4.8848734 -1
85.144661 84.375397 -5.583735 -1
92.428131 76.273186 -6.2803149 -1
98.975891 67.49147 -6.9766822 -1
1.0210133 1.2315649 -0.02792385 71
84.91864 84.740967 -2.7915766 -1
92.382408 76.506889 -3.4908643 -1
98.905975 67.823807 -4.1879396 -1
0.1 0.1 0.1 -1
0.1 0.1 0.1 -1
99.439651 66.997162 4.8099556 -1
4.1550522 4.8994694 0.37412459 49
1.0733584 0.73466867 0.10577656 42
77.558151 90.392822 14.624321 -1
11.406877 7.7724948 2.5124497 15
11.885675 13.735725 4.8670921 56
1.0256554 1.2214622 0.0092700021 46
85.546005 84.153915 0 -1
92.779617 76.101624 -0.69742966 -1
99.337372 67.307045 -1.3594428 -1
77.101868 91.886429 3.4908643 -1
85.2575 84.398788 2.8290563 -1
92.740486 76.123695 2.0942888 -1
99.313148 67.341225 1.434417 -1
0.1 0.1 0.1 -1
0.72026896 0.86051601 -0.29381084 18
0.71647799 0.8469373 -0.1541315 22
0.90829283 1.0767239 -0.13377054 23
1.0438859 1.2278638 -0.10429562 12
85.728523 83.542198 -8.4451542 -1
92.894508 75.41259 -9.1407118 -1
99.419807 66.4804 -9.8008928 -1
77.038513 91.876038 -4.8848734 -1
85.438667 84.077675 -5.583735 -1
92.69381 75.950089 -6.2803149 -1
99.210884 67.145569 -6.9766822 -1
1.025306 1.2279934 -0.02792385 61
85.213921 84.444031 -2.7915766 -1
92.648911 76.183945 -3.4908643 -1
99.142128 67.478149 -4.1879396 -1
0.1 0.1 0.1 -1
0.1 0.1 0.1 -1
99.672913 66.649643 4.8099556 -1
4.1688871 4.8811398 0.37383389 44
1.0553049 0.71691525 0.10375018 38
4.4420176 5.1406827 0.83419567 22
11.40134 7.7105837 2.5052867 16
11.873263 13.624972 4.8425045 54
1.0299128 1.2178746 0.0092700021 14
85.839233 83.85479 0 -1
93.044693 75.777298 -0.69742966 -1
99.571716 66.959877 -1.3594428 -1
77.422142 91.61673 3.4908643 -1
85.55159 84.10067 2.8290563 -1
93.005638 75.799507 2.0942888 -1
99.547615 66.994148 1.434417 -1
0.1 0.1 0.1 -1
0.72326833 0.85799658 -0.29381084 20
0.72264171 0.84820092 -0.15481959 23
0.90882301 1.0697534 -0.13329785 17
77.882278 90.963158 -7.7495198 -1
86.019623 83.242439 -8.4451542 -1
93.157181 75.087868 -9.1407118 -1
99.65126 66.132957 -9.8008928 -1
1.0121104 1.1985191 -0.063910432 11
85.731636 83.778931 -5.583735 -1
92.958359 75.62606 -6.2803149 -1
99.444656 66.798843 -6.9766822 -1
1.0295863 1.224407 -0.02792385 45
85.508163 84.146065 -2.7915766 -1
92.914276 75.860077 -3.4908643 -1
99.37706 67.131668 -4.1879396 -1
0.1 0.1 0.1 -1
0.1 0.1 0.1 -1
99.904953 66.301315 4.8099556 -1
4.1631155 4.8400683 0.37179902 31
1.0784612 0.72715741 0.10577656 30
78.187317 89.849167 14.624321 -1
11.39551 7.6488066 2.4981236 14
11.860224 13.514474 4.8179164 66
1.0341578 1.2142721 0.0092700021 14
86.131416 83.554642 0 -1
93.30864 75.452049 -0.69742966 -1
99.80484 66.6119 -1.3594428 -1
77.74147 91.345924 3.4908643 -1
85.844635 83.801521 2.8290563 -1
93.269661 75.474396 2.0942888 -1
99.780861 66.646248 1.434417 -1
0.1 0.1 0.1 -1
0.72625887 0.85546666 -0.29381084 19
0.7255981 0.84567326 -0.15481959 22
0.90931565 1.0627923 -0.13282517 17
0.95468336 1.1071829 -0.094608724 14
86.309669 82.941673 -8.4451542 -1
93.418716 74.76223 -9.1407118 -1
99.8815 65.784706 -9.8008928 -1
1.0195243 1.1987846 -0.064113967 9
86.02356 83.479156 -5.583735 -1
93.221779 75.301117 -6.2803149 -1
99.677223 66.451309 -6.9766822 -1
1.0403156 1.2284355 -0.028098375 30
85.801369 83.847076 -2.7915766 -1
93.178513 75.535286 -3.4908643 -1
99.610794 66.784363 -4.1879396 -1
0.1 0.1 0.1 -1
0.1 0.1 0.1 -1
100.13578 65.952179 4.8099556 -1
4.1701808 4.814188 0.37092695 43
1.0685676 0.71507365 0.10456073 18
78.500473 89.575691 14.624321 -1
11.389388 7.5871644 2.4909606 14
11.846558 13.404233 4.7933288 60
1.03839 1.2106549 0.0092700021 11
86.422554 83.253479 0 -1
93.571449 75.125877 -0.69742966 -1
100.03675 66.263115 -1.3594428 -1
78.059853 91.073997 3.4908643 -1
86.136635 83.501358 2.8290563 -1
93.532547 75.148361 2.0942888 -1
100.01289 66.297546 1.434417 -1
0.1 0.1 0.1 -1
0.73238391 0.85660273 -0.29507726 17
0.72854561 0.8431353 -0.15481959 24
0.90977073 1.055841 -0.13235247 19
0.935642 1.077472 -0.092348441 14
86.598663 82.639885 -8.4451542 -1
93.679115 74.435684 -9.1407118 -1
100.11053 65.435654 -9.8008928 -1
0.98795432 1.1534808 -0.061875064 9
86.31443 83.178368 -5.583735 -1
93.484062 74.97525 -6.2803149 -1
99.908577 66.102966 -6.9766822 -1
1.0251328 1.2019744 -0.027574802 24
86.093529 83.547058 -2.7915766 -1
93.441612 75.209572 -3.4908643 -1
99.843307 66.436249 -4.1879396 -1
0.1 0.1 0.1 -1
0.1 0.1 0.1 -1
100.36539 65.602242 4.8099556 -1
78.751595 90.274651 6.9766822 -1
99.633224 66.171097 9.7265797 -1
78.812675 89.301132 14.624321 -1
11.382975 7.5256586 2.4837976 14
11.835478 13.297861 4.7700348 54
1.0295361 1.1918877 0.0091537638 12
86.712639 82.951302 0 -1
93.833115 74.798798 -0.69742966 -1
100.26745 65.913513 -1.3594428 -1
78.377289 90.800964 3.4908643 -1
86.427582 83.20018 2.8290563 -1
93.794296 74.821411 2.0942888 -1
100.2437 65.948029 1.434417 -1
0.1 0.1 0.1 -1
0.7353695 0.85404104 -0.29507726 18
0.73473531 0.84432304 -0.15550768 25
0.9069261 1.0451398 -0.1314071 25
0.93939739 1.0741993 -0.092348441 14
86.886604 82.337097 -8.4451542 -1
93.938377 74.108223 -9.1407118 -1
100.33833 65.085808 -9.8008928 -1
78.313789 90.791451 -4.8848734 -1
86.604248 82.876572 -5.583735 -1
93.745201 74.648476 -6.2803149 -1
100.13871 65.753822 -6.9766822 -1
1.0228075 1.190804 -0.027400278 14
86.384636 83.246033 -2.7915766 -1
93.703568 74.882942 -3.4908643 -1
100.0746 66.087326 -4.1879396 -1
0.1 0.1 0.1 -1
0.1 0.1 0.1 -1
100.59377 65.251495 4.8099556 -1
79.066231 89.999207 6.9766822 -1
99.863602 65.822906 9.7265797 -1
79.123917 89.025475 14.624321 -1
11.376272 7.4642901 2.4766343 13
11.820578 13.188134 4.7454472 58
1.0107194 1.1618804 0.0089503471 6
87.001663 82.648117 0 -1
94.093643 74.470802 -0.69742966 -1
100.49692 65.56311 -1.3594428 -1
78.693764 90.526817 3.4908643 -1
86.717476 82.89798 2.8290563 -1
94.054901 74.493553 2.0942888 -1
100.47329 65.59771 1.434417 -1
0.1 0.1 0.1 -1
0.73834622 0.85146892 -0.29507726 20
0.73767805 0.84175318 -0.15550768 26
0.90729338 1.0382196 -0.13093442 26
0.93324822 1.0596803 -0.091379754 15
87.173485 82.03331 -8.4451542 -1
94.196487 73.779869 -9.1407118 -1
100.56491 64.735161 -9.8008928 -1
0.90097147 1.0371801 -0.055972509 13
86.893013 82.573761 -5.583735 -1
94.005203 74.320786 -6.2803149 -1
100.36762 65.40387 -6.9766822 -1
1.0596635 1.2250363 -0.028272899 7
86.674698 82.943985 -2.7915766 -1
93.964386 74.555397 -3.4908643 -1
100.30468 65.737602 -4.1879396 -1
0.1 0.1 0.1 -1
0.1 0.1 0.1 -1
100.82092 64.899963 4.8099556 -1
79.379906 89.722664 6.9766822 -1
100.09276 65.473915 9.7265797 -1
79.434189 88.748741 14.624321 -1
11.369279 7.40306 2.4694712 14
11.808292 13.08226 4.7221537 51
0.90604377 1.0342368 0.007991381 12
87.289627 82.343918 0 -1
94.35302 74.141899 -0.69742966 -1
100.72516 65.211914 -1.3594428 -1
79.009285 90.251579 3.4908643 -1
87.006317 82.59478 2.8290563 -1
94.314362 74.164787 2.0942888 -1
100.70166 65.246597 1.434417 -1
0.1 0.1 0.1 -1
0.74131387 0.84888637 -0.29507726 18
0.74061185 0.83917308 -0.15550768 27
0.91091192 1.0350462 -0.13093442 32
0.93032002 1.0489504 -0.09073396 17
87.459297 81.728516 -8.4451542 -1
94.453453 73.450615 -9.1407118 -1
100.79027 64.383728 -9.8008928 -1
0.90458637 1.0340288 -0.055972509 9
87.180725 82.269943 -5.583735 -1
94.264061 73.992195 -6.2803149 -1
100.59531 65.053123 -6.9766822 -1
0.90959728 1.0441616 -0.024171583 9
86.963692 82.64093 -2.7915766 -1
94.224068 74.226944 -3.4908643 -1
100.53354 65.38707 -4.1879396 -1
0.1 0.1 0.1 -1
0.1 0.1 0.1 -1
101.04685 64.547638 4.8099556 -1
79.692612 89.44503 6.9766822 -1
100.32069 65.12413 9.7265797 -1
79.743492 88.470924 14.624321 -1
11.361999 7.3419704 2.4623082 13
11.795412 12.976632 4.6988597 53
0.88980156 1.0085719 0.0078170244 16
87.57653 82.038719 0 -1
94.611244 73.812096 -0.69742966 -1
100.95218 64.859924 -1.3594428 -1
79.323837 89.975235 3.4908643 -1
87.294098 82.290565 2.8290563 -1
94.57267 73.835114 2.0942888 -1
100.9288 64.894684 1.434417 -1
0.1 0.1 0.1 -1
0.74746686 0.8499257 -0.29634371 17
0.74682659 0.84028441 -0.15619577 25
0.91121787 1.0281351 -0.13046172 31
0.92732841 1.0382539 -0.090088166 15
87.744057 81.422729 -8.4451542 -1
94.709267 73.120461 -9.1407118 -1
101.01439 64.031517 -9.8008928 -1
0.90158528 1.0233676 -0.055565435 10
87.467369 81.965126 -5.583735 -1
94.521767 73.662704 -6.2803149 -1
100.82178 64.701584 -6.9766822 -1
0.91653347 1.0447382 -0.024258845 11
87.251633 82.336861 -2.7915766 -1
94.48259 73.897591 -3.4908643 -1
