# .PCD v0.7 - Point Cloud Data file format
VERSION 0.7
FIELDS x y z intensity
SIZE 4 4 4 4
TYPE F F F F
COUNT 1 1 1 1
WIDTH 1567
HEIGHT 1
VIEWPOINT 0 0 0 1 0 0 0
POINTS 1567
DATA ascii
0.43658501 1.3573608 -0.10892681 47
0.57159919 1.3381536 -0.1192442 13
0.1 0.1 0.1 -1
0.1 0.1 0.1 -1
0.47931671 1.5137473 -0.083214171 17
0.59407681 1.4125627 -0.089243397 16
0.1 0.1 0.1 -1
0.1 0.1 0.1 -1
0.58365434 1.8545003 -0.056581091 43
0.72385114 1.7338208 -0.065611057 15
0.39101782 0.92431837 -0.18204546 40
0.45885128 1.0736841 -0.13146509 15
1.0754582 2.5177226 0.10982732 13
0.80875397 6.2270608 0.36569443 47
0.948524 2.2664084 0.19980015 11
0.8504107 6.2650657 0.7763077 88
6.8138137 16.185694 3.1965237 29
3.2632053 23.307455 6.3061261 103
0.80936587 6.4795361 0.037951797 26
0.57237273 2.5669611 0 17
0.70536411 2.2048821 -0.013454581 46
0.87836564 2.0713098 -0.025489552 12
0.77588874 6.229207 0.18268856 45
1.3696159 6.2345586 0.15052937 15
0.73493093 2.3000708 0.042147562 42
0.97320104 2.2971754 0.02982392 17
0.1 0.1 0.1 -1
0.1 0.1 0.1 -1
0.1 0.1 0.1 -1
0.1 0.1 0.1 -1
0.1 0.1 0.1 -1
0.1 0.1 0.1 -1
0.44132042 1.3558286 -0.10892681 46
0.57429326 1.3315743 -0.11883583 12
0.1 0.1 0.1 -1
0.1 0.1 0.1 -1
0.48612165 1.5168198 -0.083475851 16
0.59900397 1.4104804 -0.089243397 16
0.1 0.1 0.1 -1
0.1 0.1 0.1 -1
0.59315825 1.8619758 -0.056871995 16
0.73184013 1.735888 -0.06578555 15
0.39617449 0.92747211 -0.18293783 37
0.46259633 1.0720758 -0.13146509 13
1.0862187 2.5185409 0.11002773 12
0.83048552 6.2241998 0.36569443 48
0.95836949 2.267674 0.20020543 11
0.8722747 6.2620592 0.7763077 96
9.876255 23.233168 4.5951147 13
3.3452301 23.300703 6.3074203 108
0.83197874 6.4766712 0.037951797 21
0.58243483 2.569824 0 17
0.7115162 2.1976497 -0.013425521 45
0.88559049 2.0682311 -0.025489552 13
0.79826307 6.2314181 0.18283401 48
1.3913702 6.2297397 0.15052937 15
0.74295521 2.2974913 0.042147562 23
0.98318011 2.2983611 0.029883688 14
0.1 0.1 0.1 -1
0.1 0.1 0.1 -1
0.1 0.1 0.1 -1
0.1 0.1 0.1 -1
0.1 0.1 0.1 -1
0.1 0.1 0.1 -1
0.44605044 1.3542799 -0.10892681 47
0.57694834 1.3249927 -0.11842746 10
0.1 0.1 0.1 -1
0.1 0.1 0.1 -1
0.49141338 1.5151137 -0.083475851 16
0.6039238 1.4083809 -0.089243397 15
0.1 0.1 0.1 -1
0.1 0.1 0.1 -1
0.60118777 1.8646507 -0.057017449 19
0.73789501 1.7333229 -0.06578555 16
0.39940956 0.92608356 -0.18293783 37
0.46435136 1.0658994 -0.13090567 14
1.0950034 2.5147338 0.11002773 13
0.85220701 6.2212629 0.36569443 47
0.96627927 2.2643149 0.20020543 12
0.89482987 6.2638888 0.77691704 101
9.968935 23.225674 4.6004872 14
3.4265442 23.288885 6.3074203 104
0.85523582 6.4786844 0.037980858 9
26.932901 116.93852 0 -1
0.72073978 2.1999042 -0.013454581 46
0.89280462 2.0651271 -0.025489552 13
0.82000995 6.2285938 0.18283401 45
1.4142141 6.2297192 0.15064725 16
0.74786079 2.2853813 0.041973036 28
0.98128492 2.271966 0.029584851 22
0.1 0.1 0.1 -1
0.1 0.1 0.1 -1
0.1 0.1 0.1 -1
0.1 0.1 0.1 -1
0.1 0.1 0.1 -1
0.1 0.1 0.1 -1
0.45077506 1.3527147 -0.10892681 47
0.57755905 1.3138467 -0.11761072 10
0.1 0.1 0.1 -1
0.1 0.1 0.1 -1
0.49669912 1.5133891 -0.083475851 16
0.61081946 1.4108449 -0.089534089 17
0.1 0.1 0.1 -1
0.1 0.1 0.1 -1
0.61079341 1.8720436 -0.057308353 14
0.74591428 1.7353274 -0.06596005 13
0.40263975 0.92468369 -0.18293783 36
0.4680692 1.064272 -0.13090567 14
1.1037748 2.5108962 0.11002773 12
0.87391806 6.2182503 0.36569443 47
0.97417736 2.2609282 0.20020543 11
0.91740841 6.2656374 0.77752644 107
10.055815 23.204275 4.6031733 14
3.5085366 23.281557 6.3087144 103
0.87851709 6.4806142 0.038009916 8
0.60263962 2.5754321 0 18
0.744147 2.2448344 -0.013745176 17
0.90200782 2.0665803 -0.025546195 13
0.84174681 6.2256932 0.18283401 45
1.4359514 6.2247448 0.15064725 16
0.77469027 2.3397071 0.043020181 54
1.0012 2.2960241 0.029943455 7
0.1 0.1 0.1 -1
0.1 0.1 0.1 -1
0.1 0.1 0.1 -1
0.1 0.1 0.1 -1
0.1 0.1 0.1 -1
0.1 0.1 0.1 -1
0.4570868 1.3558571 -0.10930768 48
0.58012038 1.3072678 -0.11720235 9
0.1 0.1 0.1 -1
0.1 0.1 0.1 -1
0.50197881 1.5116462 -0.083475851 16
0.61574054 1.4087042 -0.089534089 16
0.1 0.1 0.1 -1
0.1 0.1 0.1 -1
0.61889118 1.8746461 -0.057453807 40
0.75196719 1.7327131 -0.06596005 11
0.40586504 0.92327261 -0.18293783 39
0.46976519 1.0580904 -0.13034624 16
1.1125327 2.5070281 0.11002773 13
0.8956185 6.2151618 0.36569443 47
0.98206353 2.257514 0.20020543 11
0.93927401 6.2623973 0.77752644 101
10.152526 23.205086 4.6103363 7
3.5905192 23.273941 6.3100085 101
0.89975542 6.4676037 0.037951797 8
27.748623 116.74765 0 -1
38.15535 113.77031 -0.69742966 -1
0.90921605 2.0634191 -0.025546195 12
0.8641603 6.2276678 0.18297946 43
1.4588115 6.2245612 0.15076512 16
0.79079235 2.3606904 0.043456491 24
1.011223 2.2970912 0.030003222 7
0.1 0.1 0.1 -1
0.1 0.1 0.1 -1
0.1 0.1 0.1 -1
0.1 0.1 0.1 -1
0.1 0.1 0.1 -1
0.1 0.1 0.1 -1
0.46181685 1.3542533 -0.10930768 48
0.58264285 1.300687 -0.11679398 6
0.1 0.1 0.1 -1
27.698212 116.62603 -5.583735 -1
0.5072524 1.5098847 -0.083475851 16
0.62065405 1.4065462 -0.089534089 17
0.1 0.1 0.1 -1
0.1 0.1 0.1 -1
0.62859786 1.8819551 -0.057744712 15
0.75801086 1.7300776 -0.06596005 13
0.40908539 0.92185026 -0.18293783 34
0.47345576 1.0564443 -0.13034624 19
1.1233195 2.5076888 0.11022814 12
0.91803718 6.2169356 0.36598513 46
0.98993772 2.2540722 0.20020543 11
0.96188134 6.2639856 0.77813578 107
6.447341 14.597374 2.9046283 5
3.6724916 23.266037 6.3113022 102
0.92161983 6.4594741 0.037922736 9
28.155979 116.65008 0 -1
0.7180357 2.1164784 -0.012989627 42
0.91844511 2.064801 -0.02560284 12
0.88589364 6.2246132 0.18297946 44
1.4793729 6.2145686 0.15064725 14
0.79902786 2.3579156 0.043456491 32
1.0253261 2.3072538 0.030182526 8
0.1 0.1 0.1 -1
0.1 0.1 0.1 -1
0.1 0.1 0.1 -1
0.1 0.1 0.1 -1
0.1 0.1 0.1 -1
0.1 0.1 0.1 -1
0.46816683 1.3573461 -0.10968854 49
0.58923262 1.3031859 -0.11720235 4
0.1 0.1 0.1 -1
28.105145 116.52863 -5.583735 -1
0.51412642 1.5128324 -0.08373753 16
0.62759107 1.4089308 -0.089824788 9
0.1 0.1 0.1 -1
0.1 0.1 0.1 -1
0.63196349 1.8702797 -0.057453807 43
0.76404536 1.7274212 -0.06596005 12
0.41230077 0.92041665 -0.18293783 39
0.47509274 1.0502582 -0.12978682 25
1.1320661 2.5037525 0.11022814 13
0.93973273 6.2136931 0.36598513 47
0.9998197 2.2551587 0.2006107 12
0.98374087 6.2605896 0.77813578 107
6.5002594 14.579272 2.9055238 6
3.7544527 23.257845 6.3125963 89
17.363899 118.73504 0.69742966 -1
28.562992 116.55109 0 -1
0.72379637 2.10923 -0.012960568 44
0.92769492 2.0661435 -0.025659483 12
0.9076162 6.2214832 0.18297946 44
1.5057549 6.2288013 0.15111876 13
0.80725366 2.3551121 0.043456491 47
1.0354199 2.3082225 0.030242292 7
0.1 0.1 0.1 -1
0.1 0.1 0.1 -1
0.1 0.1 0.1 -1
0.1 0.1 0.1 -1
0.1 0.1 0.1 -1
0.1 0.1 0.1 -1
0.472902 1.3557036 -0.10968854 48
0.55653757 1.2195177 -0.10985168 4
0.1 0.1 0.1 -1
28.511734 116.42982 -5.583735 -1
0.51940405 1.5110286 -0.08373753 16
0.6345523 1.411284 -0.09011548 11
0.1 0.1 0.1 -1
0.1 0.1 0.1 -1
0.64172095 1.8775209 -0.057744712 42
0.77007055 1.7247436 -0.06596005 13
0.4155111 0.91897184 -0.18293783 16
0.47875592 1.0485934 -0.12978682 22
1.1428732 2.5043306 0.11042856 13
0.96141684 6.2103748 0.36598513 47
1.0076855 2.2516549 0.2006107 12
1.0063759 6.2620177 0.77874511 109
6.5490923 14.552008 2.9046283 24
3.836401 23.249363 6.3138905 82
0.96595192 6.447938 0.037893679 4
28.969658 116.45067 0 -1
0.72951514 2.1019671 -0.012931508 45
0.93490148 2.0628927 -0.025659483 10
0.92932773 6.218277 0.18297946 44
1.5274884 6.2235074 0.15111876 13
0.81383216 2.3475564 0.04336923 18
1.0455331 2.3091486 0.030302059 7
0.1 0.1 0.1 -1
0.1 0.1 0.1 -1
0.1 0.1 0.1 -1
0.1 0.1 0.1 -1
0.1 0.1 0.1 -1
0.1 0.1 0.1 -1
0.47763142 1.3540446 -0.10968854 49
0.53577441 1.1632524 -0.10495123 3
0.1 0.1 0.1 -1
28.917976 116.32958 -5.583735 -1
0.52631497 1.5139226 -0.083999209 16
0.64153755 1.4136058 -0.090406179 17
0.1 0.1 0.1 -1
0.1 0.1 0.1 -1
0.64827085 1.8752694 -0.057744712 38
0.77813947 1.7266008 -0.06613455 12
0.4187164 0.91751587 -0.18293783 38
0.48033392 1.0424033 -0.12922738 15
1.153698 2.5048637 0.11062898 12
0.98308927 6.2069812 0.36598513 46
1.0155392 2.2481239 0.2006107 12
1.0282283 6.2584662 0.77874511 112
6.5693312 14.461877 2.8911974 3
3.9183362 23.240591 6.3151846 86
18.192396 118.61092 0.69742966 -1
29.375971 116.34884 0 -1
0.73850381 2.1041255 -0.012960568 44
0.94417632 2.0641632 -0.025716126 12
0.95102787 6.2149949 0.18297946 45
1.549203 6.2181373 0.15111876 15
0.82202166 2.3447013 0.04336923 23
1.0556653 2.3100324 0.030361827 7
0.1 0.1 0.1 -1
0.1 0.1 0.1 -1
0.1 0.1 0.1 -1
0.1 0.1 0.1 -1
0.1 0.1 0.1 -1
0.1 0.1 0.1 -1
0.48402983 1.3570648 -0.1100694 49
0.53983164 1.161375 -0.10495123 3
0.1 0.1 0.1 -1
29.323866 116.22794 -5.583735 -1
0.53159636 1.5120763 -0.083999209 8
0.64646804 1.4113578 -0.090406179 9
0.1 0.1 0.1 -1
0.1 0.1 0.1 -1
39.585659 113.22893 -3.4908643 -1
0.78416169 1.7238741 -0.06613455 12
0.42397469 0.92051721 -0.18383022 17
0.47977945 1.0317097 -0.12810855 8
1.1666462 2.5098822 0.1110298 12
1.0055478 6.2084389 0.36627582 46
1.0254478 2.2490997 0.20101598 10
1.0508897 6.2597332 0.77935445 112
10.426807 22.742655 4.5539269 91
4.0002565 23.231531 6.3164787 90
1.0140442 6.4607949 0.038009916 4
29.781925 116.24559 0 -1
0.74751633 2.1062467 -0.012989627 43
0.95137578 2.0608549 -0.025716126 12
0.97271651 6.2116375 0.18297946 44
29.408405 116.30624 2.8290563 -1
0.82853079 2.3371058 0.043281969 27
1.0658163 2.3108733 0.030421594 6
0.1 0.1 0.1 -1
0.1 0.1 0.1 -1
0.1 0.1 0.1 -1
0.1 0.1 0.1 -1
0.1 0.1 0.1 -1
0.1 0.1 0.1 -1
0.48876393 1.3553669 -0.1100694 47
0.52695215 1.1233908 -0.10168426 3
0.1 0.1 0.1 -1
29.729399 116.12487 -5.583735 -1
0.53687125 1.5102113 -0.083999209 16
0.65348518 1.4136235 -0.090696871 10
0.1 0.1 0.1 -1
0.1 0.1 0.1 -1
0.65634918 1.8565618 -0.057308353 19
0.79225922 1.7256675 -0.066309042 12
0.42718533 0.91903162 -0.18383022 36
0.48126704 1.0255307 -0.12754911 9
1.1796436 2.5148408 0.11143064 12
1.0272131 6.2048912 0.36627582 45
1.0332924 2.2455065 0.20101598 10
1.0727339 6.2560267 0.77935445 114
10.514394 22.723978 4.5575085 72
4.0829978 23.22694 6.319067 98
19.020006 118.48103 0.69742966 -1
30.187515 116.14092 0 -1
0.7565527 2.1083307 -0.013018687 43
0.96067512 2.0620534 -0.025772769 12
0.99439323 6.2082043 0.18297946 43
29.814211 116.20288 2.8290563 -1
0.83668375 2.3341994 0.043281969 27
1.0780958 2.3162041 0.030541129 5
0.1 0.1 0.1 -1
0.1 0.1 0.1 -1
0.1 0.1 0.1 -1
0.1 0.1 0.1 -1
0.1 0.1 0.1 -1
0.1 0.1 0.1 -1
0.49349207 1.3536526 -0.1100694 46
0.54579437 1.1530739 -0.10454286 3
0.1 0.1 0.1 -1
0.1 0.1 0.1 -1
0.54213959 1.5083282 -0.083999209 16
0.65841562 1.4113337 -0.090696871 18
0.1 0.1 0.1 -1
0.1 0.1 0.1 -1
0.67123729 1.8777906 -0.058035616 17
0.79827809 1.7228916 -0.066309042 21
0.43039075 0.91753489 -0.18383022 15
0.48271737 1.019354 -0.12698969 11
1.1798651 2.492645 0.11062898 16
1.0488659 6.2012677 0.36627582 45
1.0432235 2.2464058 0.20142125 11
1.094565 6.2522445 0.77935445 107
49.950417 106.97275 21.489235 -1
4.1649027 23.2173 6.3203611 98
1.0607433 6.4634261 0.038068034 9
30.592739 116.03484 0 -1
0.77584362 2.1385782 -0.013222104 46
0.96999437 2.0632119 -0.025829414 11
1.0168655 6.2096276 0.18312491 43
30.219654 116.0981 2.8290563 -1
0.84482652 2.3312647 0.043281969 29
1.0904254 2.3214774 0.030660663 6
0.1 0.1 0.1 -1
0.1 0.1 0.1 -1
0.1 0.1 0.1 -1
0.1 0.1 0.1 -1
0.1 0.1 0.1 -1
0.1 0.1 0.1 -1
0.49821419 1.3519217 -0.1100694 47
0.55196375 1.1556584 -0.10495123 4
0.1 0.1 0.1 -1
0.1 0.1 0.1 -1
0.54740131 1.5064266 -0.083999209 16
0.66333812 1.4090269 -0.090696871 18
0.1 0.1 0.1 -1
0.1 0.1 0.1 -1
0.67948663 1.8801364 -0.05818107 16
0.80640382 1.7246211 -0.066483542 12
0.43359089 0.91602695 -0.18383022 36
0.48413047 1.0131797 -0.12643026 9
1.1864057 2.4840033 0.11042856 27
1.070506 6.1975689 0.36627582 46
1.0510585 2.2427506 0.20142125 12
1.1163827 6.2483854 0.77935445 103
50.323517 106.79774 21.489235 -1
4.2467904 23.207371 6.3216553 98
19.846689 118.34535 0.69742966 -1
30.997591 115.92735 0 -1
0.81429178 2.2203524 -0.013745176 44
0.97933334 2.0643306 -0.025886057 11
1.038535 6.2060404 0.18312491 41
30.624727 115.99191 2.8290563 -1
0.85295904 2.3283014 0.043281969 29
1.0985223 2.317657 0.030660663 32
0.1 0.1 0.1 -1
0.1 0.1 0.1 -1
0.1 0.1 0.1 -1
0.1 0.1 0.1 -1
0.1 0.1 0.1 -1
0.1 0.1 0.1 -1
0.50293022 1.3501744 -0.1100694 48
0.56032115 1.162703 -0.10576797 4
0.1 0.1 0.1 -1
0.1 0.1 0.1 -1
0.55265641 1.5045066 -0.083999209 16
0.66825247 1.4067028 -0.090696871 17
0.1 0.1 0.1 -1
0.1 0.1 0.1 -1
0.68261516 1.8683643 -0.057890166 16
0.81241894 1.7217957 -0.066483542 12
0.43678579 0.91450787 -0.18383022 34
0.48982197 1.0159591 -0.12698969 9
1.1907314 2.4708455 0.11002773 11
1.092133 6.1937943 0.36627582 46
1.0610113 2.2435732 0.20182653 11
1.1390768 6.2493329 0.77996379 101
50.696007 106.62142 21.489235 -1
4.3286591 23.197153 6.3229494 103
20.25967 118.27535 0.69742966 -1
31.402063 115.81844 0 -1
0.83594066 2.2550018 -0.013977652 43
0.98653322 2.0608995 -0.025886057 11
1.0610338 6.2073035 0.18327036 41
0.71109104 2.6556818 0.064832538 27
0.86281717 2.329998 0.04336923 28
1.1066056 2.3138082 0.030660663 5
0.1 0.1 0.1 -1
0.1 0.1 0.1 -1
0.1 0.1 0.1 -1
0.1 0.1 0.1 -1
0.1 0.1 0.1 -1
0.1 0.1 0.1 -1
0.50939673 1.3530763 -0.11045027 48
0.55348104 1.1383319 -0.10372612 3
0.1 0.1 0.1 -1
0.1 0.1 0.1 -1
0.55964279 1.5072491 -0.084260888 16
0.67315871 1.4043616 -0.090696871 16
0.1 0.1 0.1 -1
0.1 0.1 0.1 -1
0.68913281 1.8659701 -0.057890166 40
0.81842417 1.7189493 -0.066483542 14
0.43997535 0.91297764 -0.18383022 37
0.49553877 1.0187112 -0.12754911 10
1.1906106 2.4487019 0.10922607 6
1.1137468 6.1899443 0.36627582 46
1.0688365 2.239856 0.20182653 12
1.1608841 6.2453184 0.77996379 106
5.1684942 10.773001 2.1748898 22
4.4105082 23.186647 6.3242435 102
20.672405 118.20391 0.69742966 -1
31.806154 115.70811 0 -1
0.84556127 2.256752 -0.014006712 45
0.99807 2.0664475 -0.025999343 11
1.0826949 6.2035623 0.18327036 41
0.72035676 2.6531835 0.064832538 49
0.8709451 2.326972 0.04336923 28
1.1125028 2.3054285 0.030600896 7
0.1 0.1 0.1 -1
0.1 0.1 0.1 -1
0.1 0.1 0.1 -1
0.1 0.1 0.1 -1
0.1 0.1 0.1 -1
32.270847 115.27043 -8.4451542 -1
0.5141167 1.35129 -0.11045027 48
0.57500869 1.1721849 -0.10699309 3
0.1 0.1 0.1 -1
0.1 0.1 0.1 -1
0.56490064 1.5052865 -0.084260888 16
0.67805678 1.4020033 -0.090696871 17
0.1 0.1 0.1 -1
0.1 0.1 0.1 -1
0.69389427 1.858871 -0.057744712 45
0.82441944 1.716082 -0.066483542 14
0.44595012 0.91554958 -0.1847226 15
0.49980158 1.0166266 -0.12754911 7
1.1876367 2.4167902 0.10802358 6
1.1405698 6.1901336 0.36656651 45
1.0803744 2.2398479 0.20223179 11
1.1879616 6.2452765 0.78057313 110
51.513294 106.22897 21.489235 -1
4.5085158 23.172709 6.3255377 102
21.167355 118.11629 0.69742966 -1
32.29055 115.57388 0 -1
0.85323298 2.2485158 -0.013977652 45
1.0089104 2.0667417 -0.026055986 10
1.1095507 6.2038922 0.18341583 41
0.73279399 2.6549613 0.064950421 48
0.88068467 2.3233035 0.04336923 28
1.1199583 2.2962546 0.030541129 6
0.1 0.1 0.1 -1
0.1 0.1 0.1 -1
0.1 0.1 0.1 -1
0.1 0.1 0.1 -1
0.1 0.1 0.1 -1
32.753407 115.13424 -8.4451542 -1
0.51977247 1.3491247 -0.11045027 49
0.58212709 1.1742308 -0.10740145 4
0.1 0.1 0.1 -1
0.1 0.1 0.1 -1
0.57297492 1.5075744 -0.084522568 16
0.68392348 1.3991507 -0.090696871 17
0.1 0.1 0.1 -1
0.1 0.1 0.1 -1
0.70167452 1.8559481 -0.057744712 45
0.83378321 1.7171087 -0.066658042 13
0.44914326 0.91398734 -0.1847226 36
0.50555491 1.0193269 -0.12810855 6
53.257099 107.42693 4.8099556 -1
1.1621704 6.1861148 0.36656651 46
1.0881863 2.236063 0.20223179 11
1.2097543 6.2410917 0.78057313 108
51.883789 106.0485 21.489235 -1
4.5912538 23.166306 6.3281255 101
21.579529 118.04168 0.69742966 -1
32.693783 115.46046 0 -1
0.85928643 2.2408552 -0.013948593 45
1.0183275 2.0676925 -0.026112631 11
1.1311995 6.1999817 0.18341583 40
0.74071032 2.6475735 0.064832538 28
0.89057744 2.3248835 0.043456491 28
1.1279669 2.2923315 0.030541129 6
0.1 0.1 0.1 -1
0.1 0.1 0.1 -1
0.1 0.1 0.1 -1
0.1 0.1 0.1 -1
0.1 0.1 0.1 -1
33.155098 115.01921 -8.4451542 -1
0.52628714 1.3519479 -0.11083113 48
0.56393254 1.1276217 -0.10331775 4
0.1 0.1 0.1 -1
32.638237 115.34109 -5.583735 -1
0.57823384 1.5055652 -0.084522568 16
0.68880326 1.3967549 -0.090696871 16
0.1 0.1 0.1 -1
0.1 0.1 0.1 -1
0.70636499 1.8488188 -0.057599258 46
0.83977193 1.7141877 -0.066658042 13
0.45451611 0.91682178 -0.18561497 13
0.51133311 1.0219995 -0.12866797 6
1.1553177 2.3101363 0.10361446 5
1.1846957 6.1869226 0.36685723 46
1.0959851 2.2322509 0.20223179 12
1.2324939 6.2416997 0.78118247 107
52.253651 105.86675 21.489235 -1
4.6730471 23.154873 6.3294196 103
21.99144 117.96563 0.69742966 -1
33.096615 115.34563 0 -1
0.86710322 2.2378421 -0.013948593 47
1.0255389 2.0641253 -0.026112631 11
1.1537489 6.2009087 0.18356128 41
0.75403821 2.6593988 0.065186173 45
0.89868736 2.3217607 0.043456491 27
1.1359618 2.2883801 0.030541129 8
0.1 0.1 0.1 -1
0.1 0.1 0.1 -1
0.1 0.1 0.1 -1
0.1 0.1 0.1 -1
0.1 0.1 0.1 -1
33.556389 114.90278 -8.4451542 -1
0.53100312 1.3501027 -0.11083113 48
0.54317546 1.0767051 -0.098825671 7
0.1 0.1 0.1 -1
33.040657 115.22646 -5.583735 -1
0.58348572 1.5035377 -0.084522568 9
0.69367468 1.3943419 -0.090696871 9
0.1 0.1 0.1 -1
32.664787 115.43491 -2.7915766 -1
0.71281427 1.8463418 -0.057599258 46
0.84796447 1.7157257 -0.066832535 12
0.45771363 0.91522962 -0.18561497 16
0.5171361 1.0246441 -0.12922738 8
1.1656247 2.31055 0.10381487 5
1.2062849 6.1827497 0.36685723 45
1.1037704 2.2284117 0.20223179 11
1.2542739 6.237359 0.78118247 101
52.622879 105.68371 21.489235 -1
4.7557878 23.147881 6.3320079 102
1.2405707 6.5280561 0.038620166 2
33.499046 115.2294 0 -1
0.87308675 2.2301459 -0.013919533 46
1.034978 2.0650027 -0.026169274 12
1.175387 6.1968436 0.18356128 40
0.76469696 2.6615548 0.065304048 27
0.90678632 2.3186095 0.043456491 27
1.1439427 2.2844009 0.030541129 10
0.1 0.1 0.1 -1
0.1 0.1 0.1 -1
0.1 0.1 0.1 -1
0.1 0.1 0.1 -1
0.1 0.1 0.1 -1
0.40465748 1.3678539 -0.10063809 81
0.53571266 1.3482409 -0.11083113 48
0.53789037 1.0570372 -0.097192191 7
0.1 0.1 0.1 -1
33.442669 115.11043 -5.583735 -1
0.58873051 1.5014917 -0.084522568 16
0.69853759 1.3919121 -0.090696871 13
0.1 0.1 0.1 -1
33.067532 115.32019 -2.7915766 -1
0.71925485 1.8438424 -0.057599258 46
0.85617793 1.7172272 -0.067007035 13
0.45868972 0.90923393 -0.1847226 17
0.52296382 1.0272605 -0.12978682 9
1.1691513 2.2975619 0.10341404 12
1.2288322 6.1833968 0.36714792 45
1.1137698 2.2290032 0.20263708 12
1.277034 6.2378049 0.78179187 101
5.603847 11.156559 2.2724867 38
4.8385372 23.140594 6.3345962 106
22.814451 117.80923 0.69742966 -1
0.69355929 2.3549948 0 30
0.88086605 2.2270846 -0.013919533 47
1.0421799 2.0613773 -0.026169274 11
1.1970109 6.1927028 0.18356128 40
33.529942 115.18568 2.8290563 -1
0.91487426 2.3154302 0.043456491 27
1.1609267 2.2982442 0.030780198 22
0.1 0.1 0.1 -1
0.1 0.1 0.1 -1
0.1 0.1 0.1 -1
0.1 0.1 0.1 -1
0.1 0.1 0.1 -1
0.41801915 1.3950995 -0.10274938 93
0.54041564 1.3463627 -0.11083113 49
0.58936304 1.1482549 -0.10576797 3
0.1 0.1 0.1 -1
0.45689774 1.5524054 -0.075380422 42
0.59396809 1.4994276 -0.084522568 16
0.70113754 1.3850119 -0.090406179 11
0.1 0.1 0.1 -1
33.469872 115.20406 -2.7915766 -1
0.72568667 1.8413205 -0.057599258 46
0.86216694 1.7142282 -0.067007035 14
0.45962951 0.90324259 -0.18383022 13
0.52881604 1.0298488 -0.13034624 8
1.1771642 2.2934668 0.10341404 15
1.2504089 6.17907 0.36714792 45
1.1305159 2.2429025 0.20425817 10
1.297788 6.2284508 0.78118247 96
5.5982904 11.049169 2.2545788 69
4.9192834 23.123564 6.3345962 105
1.2706308 6.4407506 0.038155213 27
0.68176568 2.2854805 0 33
0.88863468 2.2239964 -0.013919533 46
1.0516405 2.0621808 -0.026225917 12
1.2186202 6.1884871 0.18356128 41
33.931812 115.06793 2.8290563 -1
0.92295104 2.3122225 0.043456491 28
1.1666722 2.2897232 0.030720431 22
0.1 0.1 0.1 -1
0.1 0.1 0.1 -1
0.1 0.1 0.1 -1
0.1 0.1 0.1 -1
0.1 0.1 0.1 -1
0.4228864 1.3936318 -0.10274938 79
0.54511201 1.3444681 -0.11083113 48
0.59107661 1.1417652 -0.1053596 3
0.1 0.1 0.1 -1
0.46374074 1.5555874 -0.075613074 42
0.60105354 1.5019808 -0.084784247 16
0.7059679 1.382556 -0.090406179 11
0.1 0.1 0.1 -1
33.871807 115.08652 -2.7915766 -1
0.73210967 1.8387761 -0.057599258 46
0.87040627 1.7156645 -0.067181528 14
0.46053311 0.89725584 -0.18293783 37
0.53697765 1.0368205 -0.13146509 8
1.1805691 2.2804704 0.10301321 18
1.2719703 6.1746674 0.36714792 45
1.1428555 2.2478275 0.20506872 10
1.3184922 6.219028 0.78057313 78
5.6860747 11.125925 2.2742774 44
4.9703479 22.96936 6.2970672 14
23.636353 117.64709 0.69742966 -1
0.67527938 2.2352233 0 39
0.89639246 2.2208807 -0.013919533 47
1.0588324 2.0584972 -0.026225917 11
1.2411973 6.189096 0.18370673 41
34.333267 114.94878 2.8290563 -1
0.92914706 2.3043501 0.04336923 22
1.1746577 2.2856367 0.030720431 20
0.1 0.1 0.1 -1
0.1 0.1 0.1 -1
0.1 0.1 0.1 -1
0.1 0.1 0.1 -1
0.1 0.1 0.1 -1
0.43067831 1.4016825 -0.10345314 78
0.54980177 1.3425571 -0.11083113 48
0.5927521 1.1352776 -0.10495123 4
0.1 0.1 0.1 -1
0.46916795 1.5539591 -0.075613074 42
0.60629278 1.4998735 -0.084784247 16
0.70850408 1.3756458 -0.09011548 10
0.1 0.1 0.1 -1
0.57550627 1.9304974 -0.046875227 38
0.73852372 1.8362094 -0.057599258 46
0.87638974 1.7126157 -0.067181528 13
0.46140057 0.8912738 -0.18204546 35
0.54289395 1.0393438 -0.13202453 7
1.1977714 2.2940502 0.10381487 15
1.2945403 6.1750751 0.36743861 45
1.1620654 2.2659967 0.20709509 10
1.342285 6.2240901 0.78179187 92
5.7451615 11.145362 2.2823358 54
4.9072633 22.300953 6.1184821 66
1.3115566 6.4121289 0.038038976 8
0.67868954 2.2185087 0 44
0.90413934 2.2177384 -0.013919533 47
1.0660114 2.0547888 -0.026225917 12
1.2627938 6.1847253 0.18370673 40
34.734303 114.82824 2.8290563 -1
0.93529946 2.2964628 0.043281969 24
55.220028 106.53024 1.434417 -1
0.1 0.1 0.1 -1
0.1 0.1 0.1 -1
0.1 0.1 0.1 -1
0.1 0.1 0.1 -1
0.1 0.1 0.1 -1
0.43408692 1.395408 -0.10310126 85
0.55639023 1.3452367 -0.11121199 49
0.57581484 1.0935174 -0.1012759 4
0.1 0.1 0.1 -1
0.47604969 1.5570884 -0.075845733 19
0.61152464 1.497748 -0.084784247 16
0.71560264 1.3775938 -0.090406179 9
0.1 0.1 0.1 -1
0.58368623 1.9332621 -0.046991542 39
0.74680996 1.8382506 -0.057744712 46
0.88236254 1.7095461 -0.067181528 13
0.46678588 0.89401883 -0.18293783 36
0.54883438 1.0418384 -0.13258395 7
1.2011163 2.281014 0.10341404 20
1.3160874 6.1705189 0.36743861 24
1.1768368 2.2752059 0.20831092 14
25.515255 116.34045 14.624321 -1
5.7953768 11.147062 2.2868128 74
4.984024 22.278975 6.117188 59
1.3349501 6.4124064 0.038068034 9
0.6864295 2.216126 0 43
0.91377884 2.219192 -0.013948593 47
1.0778133 2.0599151 -0.026339205 11
1.2853917 6.185173 0.18385218 39
35.134918 114.70629 2.8290563 -1
0.9433099 2.293184 0.043281969 27
55.591553 106.33683 1.434417 -1
0.1 0.1 0.1 -1
0.1 0.1 0.1 -1
0.1 0.1 0.1 -1
0.1 0.1 0.1 -1
0.1 0.1 0.1 -1
0.44045332 1.3986416 -0.10345314 90
0.5610826 1.3432864 -0.11121199 49
56.093071 105.62911 -9.8008928 -1
0.1 0.1 0.1 -1
0.48148203 1.5554172 -0.075845733 42
0.61865258 1.5002204 -0.085045926 16
0.72272342 1.379509 -0.090696871 10
0.1 0.1 0.1 -1
0.58896953 1.9264326 -0.046875227 38
0.75322211 1.8356326 -0.057744712 46
0.89063191 1.710888 -0.067356028 15
0.46990374 0.89238399 -0.18293783 38
0.55013669 1.0355284 -0.13202453 8
1.2114145 2.28122 0.10361446 16
1.3386768 6.1707654 0.36772931 45
1.1663316 2.2357364 0.20506872 8
1.3867843 6.2194114 0.7824012 43
5.8342524 11.126764 2.2868128 58
25.699657 113.02615 31.058285 -1
1.3573254 6.4077077 0.038068034 8
0.69565707 2.2184875 0 44
0.92151976 2.2159889 -0.013948593 43
1.0849972 2.0561402 -0.026339205 11
1.3069742 6.1806488 0.18385218 40
35.535103 114.58295 2.8290563 -1
0.94939089 2.2852607 0.043194707 25
55.962399 106.14214 1.434417 -1
0.1 0.1 0.1 -1
0.1 0.1 0.1 -1
0.1 0.1 0.1 -1
0.1 0.1 0.1 -1
0.1 0.1 0.1 -1
0.4453328 1.3970956 -0.10345314 90
0.56576812 1.3413196 -0.11121199 48
0.59755027 1.1158291 -0.10372612 5
0.1 0.1 0.1 -1
0.48690853 1.553727 -0.075845733 19
0.62388551 1.4980518 -0.085045926 17
0.72986627 1.3813912 -0.090987563 13
0.1 0.1 0.1 -1
0.60160303 1.9434654 -0.04734049 38
0.75962508 1.8329922 -0.057744712 48
0.89659864 1.7077687 -0.067356028 13
0.47301587 0.89073831 -0.18293783 37
0.55374801 1.0336018 -0.13202453 8
56.605183 105.70108 4.8099556 -1
1.3602086 6.1660547 0.36772931 45
1.1671674 2.2184205 0.20385289 9
26.326836 116.15949 14.624321 -1
5.8776555 11.115028 2.2886035 49
26.094036 112.93575 31.058285 -1
1.3807374 6.4078183 0.038097095 8
0.7033968 2.2160456 0 44
0.93118531 2.2173686 -0.013977652 43
1.0898191 2.0479267 -0.02628256 13
1.3295918 6.1809349 0.18399763 40
35.934856 114.45821 2.8290563 -1
0.95736212 2.2819328 0.043194707 20
56.332561 105.94614 1.434417 -1
0.1 0.1 0.1 -1
0.1 0.1 0.1 -1
0.1 0.1 0.1 -1
0.1 0.1 0.1 -1
0.1 0.1 0.1 -1
0.45020685 1.3955326 -0.10345314 81
0.57044679 1.3393365 -0.11121199 48
0.60144162 1.1137364 -0.10372612 5
0.1 0.1 0.1 -1
0.49232906 1.5520179 -0.075845733 18
0.63104665 1.5004675 -0.085307606 16
0.73937821 1.3876455 -0.091568954 8
0.1 0.1 0.1 -1
0.6158573 1.965203 -0.047922067 37
0.76601875 1.8303294 -0.057744712 47
0.90723085 1.7134609 -0.06770502 12
0.47844481 0.89341873 -0.18383022 14
0.55499089 1.0272911 -0.13146509 10
56.973804 105.50285 4.8099556 -1
1.3828161 6.1661401 0.36802 24
1.1749041 2.2143328 0.20385289 16
26.732147 116.06689 14.624321 -1
55.553223 104.17318 21.489235 -1
26.488096 112.84398 31.058285 -1
1.4041668 6.4078436 0.038126156 7
0.71112794 2.2135768 0 43
0.93891966 2.2141047 -0.013977652 43
56.739365 105.72983 -1.3594428 -1
1.3522272 6.1811385 0.18414308 40
0.74030876 2.3295162 0.057642024 24
0.96727186 2.2831802 0.043281969 20
56.702042 105.74886 1.434417 -1
0.1 0.1 0.1 -1
0.1 0.1 0.1 -1
0.1 0.1 0.1 -1
0.1 0.1 0.1 -1
0.1 0.1 0.1 -1
0.45507544 1.3939526 -0.10345314 85
0.57511848 1.3373371 -0.11121199 48
0.61009198 1.1203833 -0.10454286 5
0.1 0.1 0.1 -1
0.49927044 1.5550454 -0.076078385 20
0.63628042 1.4982556 -0.085307606 17
0.74658006 1.3894532 -0.091859654 8
0.1 0.1 0.1 -1
0.6302706 1.9868647 -0.048503645 37
0.77434874 1.832248 -0.057890166 47
0.9037919 1.6926519 -0.067007035 13
0.48421094 0.89590311 -0.1847226 37
0.55893129 1.0251526 -0.13146509 10
57.378483 105.2833 4.8099556 -1
1.4075931 6.1656513 0.36831069 44
1.1881032 2.2185917 0.20466344 12
27.177614 115.96339 14.624321 -1
55.952808 103.95911 21.489235 -1
0.52047634 2.1796679 0.60046017 22
1.4298497 6.4072847 0.038155213 7
37.141792 114.10735 0 -1
0.94938397 2.2150788 -0.014006712 42
1.1143259 2.0574682 -0.026509134 12
1.3759511 6.1759009 0.18414308 38
0.73852253 2.2933505 0.05681688 48
0.97603154 2.2794492 0.043281969 36
57.107666 105.53036 1.434417 -1
0.1 0.1 0.1 -1
0.1 0.1 0.1 -1
0.1 0.1 0.1 -1
0.1 0.1 0.1 -1
0.1 0.1 0.1 -1
0.46042445 1.392195 -0.10345314 87
0.58024919 1.335119 -0.11121199 48
0.57599008 1.0481553 -0.098008931 8
0.1 0.1 0.1 -1
0.5052377 1.5531168 -0.076078385 42
0.64399803 1.5003898 -0.085569285 17
0.75190967 1.3865762 -0.091859654 9
0.1 0.1 0.1 -1
0.64248413 1.9987065 -0.048852593 38
0.78137833 1.8292612 -0.057890166 47
0.91976666 1.7067646 -0.06770502 15
0.48733526 0.89420742 -0.1847226 35
0.56250638 1.0231953 -0.13146509 10
57.745644 105.08237 4.8099556 -1
1.4291067 6.1607003 0.36831069 43
56.832012 105.24028 9.7265797 -1
27.582237 115.86781 14.624321 -1
56.315353 103.76316 21.489235 -1
0.5269435 2.1731441 0.5991661 21
1.4544187 6.4120069 0.038213331 7
0.83526218 2.5359883 0 40
0.95909595 2.2163401 -0.014035772 44
57.512871 105.31107 -1.3594428 -1
1.3986045 6.1759348 0.18428855 40
0.75116974 2.3050163 0.057170514 40
0.98596615 2.2806172 0.04336923 45
57.475689 105.33038 1.434417 -1
0.1 0.1 0.1 -1
0.1 0.1 0.1 -1
0.1 0.1 0.1 -1
0.1 0.1 0.1 -1
0.1 0.1 0.1 -1
0.46528131 1.3905792 -0.10345314 88
0.5849061 1.3330854 -0.11121199 47
0.56998456 1.0287027 -0.09637545 7
0.1 0.1 0.1 -1
0.510656 1.5513438 -0.076078385 42
0.64923143 1.4981327 -0.085569285 16
0.75913996 1.3883227 -0.092150345 11
0.1 0.1 0.1 -1
0.6510033 2.001205 -0.048968907 38
0.78973818 1.8311118 -0.058035616 48
0.91617531 1.6859813 -0.067007035 10
0.492823 0.89681244 -0.18561497 17
0.56366569 1.0168799 -0.13090567 12
58.112095 104.88017 4.8099556 -1
1.4528927 6.165391 0.36889207 43
57.199024 105.04125 9.7265797 -1
27.986523 115.77082 14.624321 -1
56.677212 103.56596 21.489235 -1
0.53568047 2.175981 0.60046017 34
1.480161 6.4215074 0.03830051 7
0.85201299 2.5567751 0 39
0.96882832 2.2175603 -0.014064832 45
57.880127 105.10967 -1.3594428 -1
1.420154 6.1710148 0.18428855 39
0.7826919 2.3735878 0.058938675 32
0.99792069 2.2863252 0.043543752 19
57.84301 105.1291 1.434417 -1
0.1 0.1 0.1 -1
0.1 0.1 0.1 -1
0.1 0.1 0.1 -1
0.1 0.1 0.1 -1
0.1 0.1 0.1 -1
0.4701325 1.3889467 -0.10345314 90
0.58955586 1.3310356 -0.11121199 48
58.32935 104.41087 -9.8008928 -1
26.849396 116.85567 -4.8848734 -1
0.5160681 1.5495518 -0.076078385 42
0.65645832 1.5004318 -0.085830972 29
0.76398146 1.3856643 -0.092150345 16
0.1 0.1 0.1 -1
0.65954781 2.0036685 -0.049085222 36
0.79612517 1.828344 -0.058035616 48
0.85482174 1.5600708 -0.062121104 5
0.49833483 0.89938998 -0.18650736 37
0.56721187 1.0149062 -0.13090567 13
0.84305555 1.5090888 0.069343522 14
1.4732431 6.1554275 0.36860138 44
57.565338 104.84095 9.7265797 -1
0.63287085 2.5785313 0.32600048 53
57.03838 103.36748 21.489235 -1
0.54327279 2.174098 0.60046017 78
1.5048473 6.4260378 0.038358632 30
0.86093259 2.5537853 0 40
0.97858083 2.2187397 -0.014093891 44
58.246674 104.90699 -1.3594428 -1
1.4416862 6.1660199 0.18428855 39
0.79255444 2.3755829 0.05905655 33
1.0079112 2.2874029 0.043631017 24
0.84161419 1.5170631 0.02073928 33
0.1 0.1 0.1 -1
0.1 0.1 0.1 -1
0.1 0.1 0.1 -1
0.1 0.1 0.1 -1
0.1 0.1 0.1 -1
0.47336242 1.3825785 -0.10310126 93
0.5901286 1.319867 -0.11045027 47
58.693455 104.20663 -9.8008928 -1
27.257133 116.76124 -4.8848734 -1
0.52147388 1.5477409 -0.076078385 42
0.66169178 1.4981312 -0.085830972 17
0.76881367 1.382989 -0.092150345 19
0.1 0.1 0.1 -1
0.66811734 2.0060966 -0.049201541 37
0.80451369 1.8301291 -0.05818107 48
0.8530128 1.5439559 -0.061597612 8
0.50147128 0.897645 -0.18650736 18
0.56831199 1.0085913 -0.13034624 11
0.85076994 1.5104897 0.069543943 16
1.4947207 6.1502476 0.36860138 44
57.93095 104.63937 9.7265797 -1
28.794067 115.57262 14.624321 -1
57.398849 103.16775 21.489235 -1
0.5508585 2.1721885 0.60046017 50
1.5365254 6.4596596 0.038591109 3
0.87145555 2.5554972 0 39
0.98835337 2.219878 -0.014122951 42
0.85965019 1.5356445 -0.019938495 14
1.4643557 6.1658125 0.184434 39
0.80084199 2.372802 0.05905655 33
1.0199531 2.2930059 0.04380554 25
0.83714205 1.4966623 0.020500209 49
0.1 0.1 0.1 -1
0.1 0.1 0.1 -1
0.1 0.1 0.1 -1
0.1 0.1 0.1 -1
0.1 0.1 0.1 -1
0.47818562 1.3809177 -0.10310126 93
0.58242744 1.2905343 -0.10816509 39
59.056847 104.00111 -9.8008928 -1
27.664541 116.66538 -4.8848734 -1
0.52687335 1.5459112 -0.076078385 42
0.6669172 1.4958123 -0.085830972 17
0.77363652 1.3802971 -0.092150345 39
0.1 0.1 0.1 -1
0.67671186 2.0084891 -0.049317855 37
0.81089711 1.8273097 -0.05818107 48
0.86326045 1.5496997 -0.061946608 16
0.50701594 0.90017563 -0.18739973 36
0.56937498 1.0022812 -0.12978682 14
0.86097127 1.5161996 0.069944769 18
1.519767 6.1595311 0.36947349 43
58.295856 104.43652 9.7265797 -1
0.63990784 2.5307484 0.32051638 92
57.758625 102.96676 21.489235 -1
0.559641 2.1749296 0.60175431 15
1.5590644 6.4542565 0.038591109 3
0.88200092 2.5571663 0 40
0.9981457 2.2209749 -0.01415201 41
0.86746275 1.5369885 -0.019995138 17
1.4858695 6.1606636 0.184434 39
0.81073469 2.3747227 0.05917443 32
1.0299987 2.2939923 0.043892801 23
0.86691988 1.53728 0.021097884 17
0.1 0.1 0.1 -1
0.1 0.1 0.1 -1
0.1 0.1 0.1 -1
0.1 0.1 0.1 -1
0.1 0.1 0.1 -1
0.48300302 1.37924 -0.10310126 66
49.599606 108.88676 -9.1407118 -1
59.419518 103.79433 -9.8008928 -1
28.071611 116.5681 -4.8848734 -1
0.53226638 1.5440627 -0.076078385 43
0.67213452 1.4934752 -0.085830972 40
0.77844995 1.3775882 -0.092150345 37
0.1 0.1 0.1 -1
0.68371868 2.0061147 -0.049317855 37
0.81931388 1.8290292 -0.058326524 48
0.86621767 1.54232 -0.061772108 15
0.51015502 0.89840037 -0.18739973 18
0.57040083 0.99597597 -0.12922738 30
0.86625856 1.513185 0.069944769 15
29.103231 116.20812 6.9766822 -1
0.82857323 1.4722825 0.13738793 16
0.64873791 2.5284991 0.32051638 97
58.117695 102.76452 21.489235 -1
0.57820821 2.2150202 0.61340111 16
1.5637202 6.3759351 0.038155213 27
0.89256853 2.5587931 0 40
1.0079578 2.2220306 -0.01418107 22
0.87035 1.5296056 -0.019938495 17
1.5097427 6.1651483 0.1847249 22
0.81901908 2.3718781 0.05917443 33
1.0400636 2.2949364 0.043980066 23
0.86486757 1.5212057 0.020918582 18
0.1 0.1 0.1 -1
0.1 0.1 0.1 -1
0.1 0.1 0.1 -1
0.1 0.1 0.1 -1
0.1 0.1 0.1 -1
0.48781452 1.3775457 -0.10310126 63
0.49979389 1.0871296 -0.091407113 10
59.781467 103.58629 -9.8008928 -1
28.478338 116.46941 -4.8848734 -1
0.5392971 1.5469115 -0.076311044 43
0.67734361 1.49112 -0.085830972 17
0.78325391 1.3748624 -0.092150345 31
0.1 0.1 0.1 -1
0.68745905 1.9942645 -0.049085222 36
0.82569337 1.8261582 -0.058326524 48
0.86913401 1.5349387 -0.061597612 18
0.51573217 0.90088367 -0.18829212 15
0.57387394 0.99397886 -0.12922738 18
0.87153524 1.510152 0.069944769 17
29.508696 116.10583 6.9766822 -1
0.84108537 1.4823847 0.13860376 14
0.65756005 2.5262194 0.32051638 99
0.83328378 1.4614946 0.3062216 20
0.62302113 2.3530509 0.652224 78
1.5944221 6.4044003 0.038358632 5
39.918594 113.16583 0 -1
1.0177894 2.2230446 -0.014210129 40
0.87568402 1.5265582 -0.019938495 23
1.5312539 6.1598406 0.1847249 22
0.82729352 2.3690047 0.05917443 31
1.0501475 2.2958381 0.044067327 22
0.87265849 1.5225151 0.020978348 17
0.1 0.1 0.1 -1
0.1 0.1 0.1 -1
0.1 0.1 0.1 -1
0.1 0.1 0.1 -1
0.1 0.1 0.1 -1
0.49430138 1.3805302 -0.10345314 65
0.48470119 1.0446767 -0.087979347 13
60.142685 103.37698 -9.8008928 -1
28.884718 116.36929 -4.8848734 -1
0.54469353 1.5450196 -0.076311044 43
0.68254447 1.4887465 -0.085830972 17
0.78804827 1.37212 -0.092150345 27
0.1 0.1 0.1 -1
0.66315097 1.9021721 -0.046875227 40
0.8341378 1.8278116 -0.058471974 49
0.87448663 1.5318955 -0.061597612 14
0.51887369 0.89907795 -0.18829212 39
0.57484078 0.98767537 -0.12866797 15
0.87428904 1.5027822 0.069744356 27
29.913801 116.00211 6.9766822 -1
0.836357 1.4621364 0.13698266 15
0.66637421 2.5239086 0.32051638 99
0.82612324 1.4372528 0.30174467 14
0.6337359 2.3601906 0.65481216 27
1.6130934 6.3842535 0.038271453 24
0.86169839 2.4159265 0 35
1.0297375 2.2285562 -0.014268248 21
0.88100731 1.5234922 -0.019938495 17
29.343239 116.30472 3.4908643 -1
0.83555782 2.3661027 0.05917443 19
1.0581552 2.2921586 0.044067327 22
0.87546641 1.5151306 0.020918582 15
0.1 0.1 0.1 -1
0.1 0.1 0.1 -1
0.1 0.1 0.1 -1
0.1 0.1 0.1 -1
0.1 0.1 0.1 -1
0.49911731 1.3787963 -0.10345314 50
0.49045888 1.0474935 -0.088360213 15
60.503174 103.16641 -9.8008928 -1
0.1 0.1 0.1 -1
0.55008334 1.5431088 -0.076311044 44
0.68773705 1.4863548 -0.085830972 17
0.7953341 1.3736806 -0.092441045 27
0.1 0.1 0.1 -1
0.66978675 1.8998456 -0.046875227 42
0.84051299 1.8248887 -0.058471974 48
0.8773362 1.5245026 -0.061423115 15
0.5220089 0.89726126 -0.18829212 16
0.57828492 0.98566276 -0.12866797 12
0.87952942 1.4997212 0.069744356 23
0.68469375 2.6173403 0.15755674 23
0.84643477 1.4678423 0.13779321 18
0.67389661 2.5167732 0.31990704 99
0.84100026 1.4513854 0.30532622 20
30.4492 111.84019 31.058285 -1
29.80171 116.23843 0.69742966 -1
0.86673397 2.403497 0 32
1.0396234 2.2294796 -0.014297307 41
0.88631994 1.5204077 -0.019938495 20
29.749041 116.20158 3.4908643 -1
0.84381199 2.3631716 0.05917443 19
1.068261 2.2929826 0.044154588 22
0.88074988 1.5120655 0.020918582 17
0.1 0.1 0.1 -1
0.1 0.1 0.1 -1
0.1 0.1 0.1 -1
0.1 0.1 0.1 -1
0.1 0.1 0.1 -1
0.50392717 1.3770458 -0.10345314 50
0.48985273 1.0367597 -0.087598488 18
0.65174043 1.1024721 -0.10495123 5
0.1 0.1 0.1 -1
0.55715996 1.5458781 -0.076543704 22
0.69292116 1.4839451 -0.085830972 17
0.80012429 1.370896 -0.092441045 24
0.1 0.1 0.1 -1
0.67473596 1.8927876 -0.046758909 43
0.84898454 1.8264759 -0.058617428 49
0.88265234 1.521431 -0.061423115 15
0.52762657 0.8996774 -0.1891845 38
0.58425122 0.98791486 -0.12922738 11
0.88475907 1.496642 0.069744356 21
0.69254565 2.6101098 0.15726605 80
0.84904873 1.4605703 0.13738793 26
0.68527836 2.5239844 0.32112572 98
0.8410992 1.4399456 0.30353546 26
30.839409 111.73322 31.058285 -1
30.207275 116.13369 0.69742966 -1
0.86998075 2.386364 0 33
1.0516571 2.234885 -0.014355427 41
0.89162177 1.5173045 -0.019938495 17
30.154478 116.09703 3.4908643 -1
0.85205585 2.3602116 0.05917443 18
1.0783855 2.2937639 0.044241849 22
0.88602263 1.5089819 0.020918582 16
0.1 0.1 0.1 -1
0.1 0.1 0.1 -1
0.1 0.1 0.1 -1
0.1 0.1 0.1 -1
0.1 0.1 0.1 -1
0.50873089 1.3752782 -0.10345314 56
0.49561423 1.0395437 -0.087979347 13
0.65303391 1.0959095 -0.10454286 5
0.1 0.1 0.1 -1
0.56255269 1.5439237 -0.076543704 43
0.70022523 1.4860342 -0.086092651 17
0.80743593 1.3723968 -0.092731737 18
0.1 0.1 0.1 -1
0.68133891 1.8904208 -0.046758909 42
0.85535496 1.8235012 -0.058617428 48
0.88795775 1.5183406 -0.061423115 16
0.5307638 0.89783019 -0.1891845 13
0.58769614 0.98586941 -0.12922738 10
0.88997793 1.4935445 0.069744356 19
0.70165241 2.6076765 0.15726605 83
0.8566615 1.4618974 0.13779321 17
0.69408453 2.5215769 0.32112572 87
0.84612042 1.4370009 0.30353546 33
6.4293203 22.980776 6.3941245 92
30.612474 116.02754 0.69742966 -1
0.87484753 2.3739295 0 33
1.0637412 2.2402337 -0.014413546 43
0.89691269 1.5141829 -0.019938495 17
30.559547 115.99107 3.4908643 -1
0.86028934 2.357223 0.05917443 19
1.0863856 2.2899857 0.044241849 22
0.89383107 1.5101824 0.020978348 23
0.1 0.1 0.1 -1
0.1 0.1 0.1 -1
0.1 0.1 0.1 -1
0.1 0.1 0.1 -1
0.1 0.1 0.1 -1
0.51352841 1.3734941 -0.10345314 58
0.49923989 1.0378073 -0.087979347 12
0.66711873 1.1107111 -0.10617635 5
0.1 0.1 0.1 -1
0.56793857 1.5419507 -0.076543704 42
0.70540822 1.4835809 -0.086092651 17
0.81476772 1.3738633 -0.093022428 22
0.1 0.1 0.1 -1
0.6879335 1.888031 -0.046758909 41
0.86385322 1.8250217 -0.058762882 49
0.89325231 1.5152318 -0.061423115 17
0.5338946 0.89597201 -0.1891845 35
0.5936929 0.98807091 -0.12978682 11
0.89518595 1.4904288 0.069744356 18
0.71206439 2.6100268 0.15755674 86
0.86175925 1.4588982 0.13779321 16
0.704216 2.5239189 0.32173505 20
0.85113132 1.4340386 0.30353546 17
6.5134516 22.972132 6.3980069 95
31.0173 115.91998 0.69742966 -1
0.88312876 2.3708613 0 35
1.0758754 2.2455251 -0.014471665 42
0.90219271 1.511043 -0.019938495 15
0.7057268 2.6411824 0.079562612 96
0.87024248 2.3588953 0.059292305 30
1.0965312 2.2906888 0.044329111 22
0.89909714 1.5070531 0.020978348 18
0.1 0.1 0.1 -1
0.1 0.1 0.1 -1
0.1 0.1 0.1 -1
0.1 0.1 0.1 -1
31.659142 115.48872 -7.7495198 -1
0.52008265 1.3763587 -0.10380502 63
0.50503635 1.0405434 -0.088360213 13
0.67357254 1.1126386 -0.10658471 5
0.1 0.1 0.1 -1
0.57506013 1.5446395 -0.076776356 43
0.71274239 1.4856114 -0.08635433 17
0.82211953 1.3752953 -0.093313128 25
0.1 0.1 0.1 -1
0.69624746 1.8903087 -0.046875227 44
0.87021846 1.8219953 -0.058762882 49
0.89853603 1.5121045 -0.061423115 15
0.53955197 0.89832038 -0.19007687 34
0.59971219 0.99024248 -0.13034624 10
0.90038306 1.4872949 0.069744356 17
0.72516251 2.6219583 0.15842883 95
0.8668465 1.4558812 0.13779321 28
32.410084 114.61115 14.624321 -1
0.85613185 1.4310589 0.30353546 27
6.594933 22.953897 6.3993011 82
0.8169654 3.011086 0.018133171 116
0.88963759 2.3630848 0 38
1.0902355 2.2552605 -0.014558844 40
0.90746176 1.5078845 -0.019938495 17
0.71494192 2.6387029 0.079562612 95
0.87847126 2.3558433 0.059292305 29
1.1066947 2.2913487 0.044416375 22
0.90435225 1.5039055 0.020978348 15
0.1 0.1 0.1 -1
0.1 0.1 0.1 -1
0.1 0.1 0.1 -1
31.54306 115.22299 -11.344498 -1
32.06208 115.3775 -7.7495198 -1
0.52488387 1.374535 -0.10380502 75
0.50866544 1.0387743 -0.088360213 9
0.6307314 1.0337095 -0.099234045 7
0.1 0.1 0.1 -1
0.58044839 1.5426228 -0.076776356 45
0.71792382 1.4831144 -0.08635433 17
0.82949126 1.3766927 -0.09360382 16
0.1 0.1 0.1 -1
0.70458567 1.8925514 -0.046991542 44
0.87874287 1.8234489 -0.058908332 49
0.90380877 1.5089588 -0.061423115 19
0.54268438 0.89643151 -0.19007687 37
0.60575378 0.99238402 -0.13090567 12
0.9055692 1.4841429 0.069744356 17
0.73026836 2.6049922 0.15755674 90
0.86935872 1.4485735 0.13738793 25
32.809952 114.49732 14.624321 -1
0.86112195 1.4280617 0.30353546 27
6.6804166 22.949286 6.4044771 92
31.825811 115.70061 0.69742966 -1
0.89610291 2.3552918 0 39
1.1090603 2.2739105 -0.014704142 39
0.91271973 1.5047077 -0.019938495 22
0.72414839 2.6361911 0.079562612 94
0.88668931 2.3527625 0.059292305 28
1.1146863 2.2874718 0.044416375 21
0.90959638 1.5007396 0.020978348 17
0.1 0.1 0.1 -1
0.1 0.1 0.1 -1
0.1 0.1 0.1 -1
31.94507 115.11218 -11.344498 -1
0.38687015 1.3735732 -0.092348441 32
0.5296787 1.3726944 -0.10380502 75
0.51228833 1.0369923 -0.088360213 7
0.64999849 1.0569708 -0.10168426 8
31.719252 115.62883 -4.8848734 -1
0.58582962 1.5405872 -0.076776356 45
0.72309643 1.4805994 -0.08635433 32
0.83688271 1.3780552 -0.093894519 17
31.498323 115.77335 -2.0942888 -1
0.71294796 1.8947588 -0.047107857 44
0.88510251 1.8203703 -0.058908332 49
0.90907055 1.5057948 -0.061423115 15
0.54581022 0.89453173 -0.19007687 15
0.61181766 0.99449539 -0.13146509 15
0.91074431 1.4809729 0.069744356 19
0.74072111 2.6072288 0.15784743 84
0.87440991 1.4455299 0.13738793 35
33.209423 114.3821 14.624321 -1
0.86865646 1.4292508 0.30443084 24
6.7645817 22.939724 6.4083595 96
32.229488 115.58881 0.69742966 -1
0.90073037 2.3428156 0 40
1.1324434 2.3014288 -0.014907558 39
0.9179666 1.5015125 -0.019938495 32
0.73468667 2.6384621 0.07970807 90
0.89667571 2.3543243 0.059410185 29
1.1248698 2.2880533 0.044503637 19
0.91222304 1.4932889 0.020918582 17
0.1 0.1 0.1 -1
0.1 0.1 0.1 -1
0.27491376 0.9721722 -0.14036977 17
0.33694473 1.1979164 -0.11817186 15
0.42179033 1.4777694 -0.099452168 6
0.53627884 1.375484 -0.1041569 74
0.51368129 1.0307357 -0.087979347 6
0.66681021 1.0758741 -0.10372612 6
32.122677 115.51741 -4.8848734 -1
0.59120375 1.538533 -0.076776356 44
0.73046714 1.4825453 -0.086616009 17
0.84168792 1.3751255 -0.093894519 18
31.902256 115.6627 -2.0942888 -1
0.72133422 1.8969309 -0.047224171 45
0.89365256 1.8217568 -0.059053786 49
0.91432118 1.5026124 -0.061423115 15
0.54892939 0.89262104 -0.19007687 33
0.61528534 0.99235368 -0.13146509 15
0.91590834 1.4777848 0.069744356 25
0.74843669 2.5998304 0.15755674 22
0.87945044 1.4424689 0.13738793 22
33.60849 114.26547 14.624321 -1
0.87620974 1.4304047 0.30532622 25
6.8487616 22.929855 6.4122419 98
32.632771 115.47561 0.69742966 -1
0.90709227 2.3349965 0 41
1.1449163 2.3064189 -0.014965678 40
0.92320228 1.498299 -0.019938495 32
0.7411772 2.6262615 0.079417162 87
0.90488839 2.3511801 0.059410185 28
1.1328498 2.2841127 0.044503637 18
0.91743004 1.4900955 0.020918582 18
0.1 0.1 0.1 -1
0.1 0.1 0.1 -1
0.28103408 0.98072827 -0.14174594 23
0.34931114 1.2254546 -0.12100798 18
0.39783618 1.375632 -0.092671342 13
0.5410769 1.3736037 -0.1041569 72
0.51727611 1.0289364 -0.087979347 11
0.69960177 1.1200318 -0.10821819 8
32.525715 115.40457 -4.8848734 -1
0.59837842 1.5411158 -0.077009015 45
0.73563778 1.4799864 -0.086616009 17
0.84910357 1.3764274 -0.094185211 18
32.305801 115.55064 -2.0942888 -1
0.72974437 1.8990674 -0.04734049 45
0.90000623 1.8186263 -0.059053786 48
0.91956073 1.4994116 -0.061423115 16
0.55204189 0.89069945 -0.19007687 23
0.61874557 0.99019992 -0.13146509 16
0.91841441 1.4703413 0.069543943 20
33.542755 115.00526 6.9766822 -1
0.8818711 1.4351443 0.13698266 16
34.007145 114.14746 14.624321 -1
0.87344497 1.4147801 0.30264005 29
6.9329553 22.919678 6.4161243 100
33.035656 115.36099 0.69742966 -1
0.9134106 2.3271616 0 41
1.1551989 2.306879 -0.014994738 41
0.92842668 1.4950674 -0.019938495 32
0.75446278 2.6380739 0.07985352 165
0.91308999 2.348007 0.059410185 27
1.1430528 2.2846153 0.044590898 20
0.91998976 1.4826357 0.020858815 28
0.1 0.1 0.1 -1
0.1 0.1 0.1 -1
0.28583661 0.98449731 -0.14243403 24
0.35496786 1.2290099 -0.12148067 17
0.41105306 1.4029646 -0.094608724 17
0.54586834 1.3717066 -0.1041569 77
0.51860976 1.022678 -0.087598488 8
0.72739983 1.1555386 -0.11189353 10
32.928352 115.29034 -4.8848734 -1
0.60375422 1.5390177 -0.077009015 45
0.74303746 1.481873 -0.086877689 29
0.85390306 1.373455 -0.094185211 18
32.70895 115.43716 -2.0942888 -1
0.73817813 1.9011683 -0.047456805 45
0.90634894 1.8154736 -0.059053786 49
0.92216182 1.491942 -0.061248615 15
0.55514765 0.88876706 -0.19007687 17
0.62219822 0.98803407 -0.13146509 21
0.92354131 1.4671265 0.069543943 19
0.7863692 2.6615598 0.16162647 15
0.88425148 1.4278203 0.13657738 15
34.405388 114.02806 14.624321 -1
0.87058187 1.3991926 0.29995391 34
7.0185752 22.913809 6.4213004 94
0.69802117 2.4057388 0.014558844 11
0.91968524 2.3193111 0 42
1.16099 2.2983696 -0.014965678 41
0.93098736 1.4875793 -0.01988185 32
33.384342 115.20981 3.4908643 -1
0.9212805 2.3448055 0.059410185 17
1.1510206 2.2806113 0.044590898 18
0.92515951 1.4794153 0.020858815 18
0.1 0.1 0.1 -1
0.1 0.1 0.1 -1
0.28927138 0.98349357 -0.14243403 18
0.35925573 1.2277633 -0.12148067 17
0.41594782 1.4015212 -0.094608724 20
0.55065316 1.3697928 -0.1041569 85
0.52217644 1.0208615 -0.087598488 9
0.75812346 1.1950724 -0.11597724 9
0.47357213 1.6364404 -0.069405913 9
0.60912275 1.5369008 -0.077009015 44
0.7482056 1.4792703 -0.086877689 17
0.85869211 1.370466 -0.094185211 20
0.60152924 2.0950215 -0.038046245 34
0.74480999 1.89858 -0.047456805 45
0.91268057 1.8122988 -0.059053786 48
0.92736405 1.4887141 -0.061248615 15
0.55886561 0.8864339 -0.19007687 20
0.62633145 0.98541915 -0.13146509 15
0.92699945 1.4590282 0.069343522 15
34.424934 114.74428 6.9766822 -1
0.89022452 1.4241039 0.13657738 18
34.882725 113.88294 14.624321 -1
0.86858648 1.3830363 0.29726776 81
7.1187959 22.898043 6.4251828 91
0.70385212 2.3884058 0.014471665 12
0.92752975 2.3107982 0 43
1.1706072 2.2934864 -0.014965678 41
0.93721038 1.4836665 -0.01988185 33
33.866634 115.06895 3.4908643 -1
0.93109429 2.3409259 0.059410185 26
1.1605635 2.2757699 0.044590898 19
0.93134832 1.475527 0.020858815 20
0.1 0.1 0.1 -1
0.1 0.1 0.1 -1
0.29197115 0.97752798 -0.14174594 17
0.36439541 1.2262477 -0.12148067 14
0.42613375 1.4140986 -0.095577411 19
0.55450642 1.3628544 -0.10380502 96
0.52644801 1.0186653 -0.087598488 12
0.78193206 1.2212638 -0.11883583 10
0.48605812 1.6536148 -0.070220061 11
0.61555511 1.5343359 -0.077009015 44
0.75439543 1.4761232 -0.086877689 17
0.86442512 1.3668571 -0.094185211 17
0.60750002 2.0828848 -0.037871722 34
0.75460118 1.9000891 -0.047573119 45
0.92253053 1.8129141 -0.05919924 48
0.93359178 1.4848164 -0.061248615 16
0.56195647 0.88447767 -0.19007687 18
0.63244724 0.98741078 -0.13202453 14
0.93208677 1.4557835 0.069343522 23
0.75164509 2.4739554 0.15058006 4
0.89519012 1.4209877 0.13657738 17
0.72765076 2.3463101 0.30162662 47
0.86814737 1.3716828 0.29547697 110
7.2044811 22.891481 6.4303594 92
0.71075481 2.3811433 0.014442606 13
0.93559033 2.3075464 0 44
1.1763173 2.2849407 -0.014936619 40
0.93969876 1.4761684 -0.019825207 20
34.268097 114.95004 3.4908643 -1
0.93926001 2.3376615 0.059410185 20
1.1685004 2.2717049 0.044590898 26
0.93649322 1.472267 0.020858815 22
0.1 0.1 0.1 -1
0.1 0.1 0.1 -1
0.29538158 0.97650284 -0.14174594 16
0.36723906 1.2202018 -0.12100798 15
0.43252361 1.4173748 -0.095900305 17
0.55926031 1.3609105 -0.10380502 90
0.52769625 1.0124005 -0.087217622 14
0.81590885 1.2645881 -0.1233279 12
0.48897618 1.6423317 -0.069812983 16
0.62090719 1.5321778 -0.077009015 22
0.76183122 1.4779191 -0.087139368 17
0.8718738 1.3680407 -0.09447591 16
0.61335045 2.0759573 -0.037784461 34
0.7612291 1.8974435 -0.047573119 45
0.92885321 1.8096828 -0.05919924 48
0.93609452 1.4773277 -0.061074119 17
0.56769317 0.8866539 -0.19096926 19
0.63858455 0.98937166 -0.13258395 18
0.93445414 1.448323 0.069143109 22
35.225155 114.50115 6.9766822 -1
0.90014488 1.4178543 0.13657738 22
0.72840375 2.3200815 0.2985799 98
0.87028491 1.3644966 0.29458159 102
7.2887416 22.879999 6.4342413 94
0.71616864 2.3690758 0.014384487 28
0.94174463 2.2996395 0 27
1.1865901 2.2852581 -0.014965678 39
0.9448458 1.4728793 -0.019825207 17
34.669136 114.82972 3.4908643 -1
0.94553441 2.3297369 0.059292305 19
1.176423 2.2676122 0.044590898 17
0.94432473 1.4731983 0.020918582 18
0.1 0.1 0.1 -1
0.1 0.1 0.1 -1
0.29878843 0.97546583 -0.14174594 15
0.37149614 1.2189125 -0.12100798 17
0.43746853 1.4158565 -0.095900305 17
