# .PCD v0.7 - Point Cloud Data file format
VERSION 0.7
FIELDS x y z intensity
SIZE 4 4 4 4
TYPE F F F F
COUNT 1 1 1 1
WIDTH 1373
HEIGHT 1
VIEWPOINT 0 0 0 1 0 0 0
POINTS 1373
DATA ascii
-3.0110965 2.8594222 -0.1450074 42
-2.2871361 2.1925185 -0.57469255 41
-2.6591423 2.5679038 -0.41621289 40
-3.9969885 3.8584991 0.22286128 13
-4.2910728 2.3066418 0.28371841 92
-4.1234703 3.9226127 0.46282309 67
-4.2878861 2.3368607 0.59959716 90
-4.1261144 3.9416232 1.0386463 52
-4.2690964 2.3498673 1.305742 74
-4.2830181 2.2754037 0.028187782 39
-4.2437353 2.8014169 0 61
-4.1849713 3.3408189 -0.031122798 75
-2.9967129 2.877763 -0.047070708 42
-4.1452217 2.2003427 0.13658006 10
-4.1301055 2.7078156 0.11646282 6
-4.205111 3.3544934 0.093893945 78
-2.9868736 2.8663108 0.049487386 40
-1.841248 0.97777265 -0.97147626 20
-2.3299472 1.2331229 -0.69020224 35
-2.7106647 1.4528366 -0.42730209 35
-3.0294251 1.6182419 -0.32615432 34
-2.9601796 1.5958924 -0.21763235 14
-4.2365952 2.8254578 -0.35927096 48
-2.8948207 2.3349917 -0.28412378 39
-2.6941805 2.6190612 -0.3079114 36
-2.9085178 1.5425817 -0.13413049 14
-4.2312894 2.792141 -0.23614545 72
-4.1814599 3.3416016 -0.28052074 87
-2.9975283 2.8815644 -0.24214903 44
-2.851814 1.5048634 -0.05628401 14
-100.36161 65.724838 -2.7915766 -1
-4.0505061 3.2253823 -0.15068898 5
-2.9902627 2.8595548 -0.14448391 41
-2.2865479 2.2073226 -0.57647729 39
-2.6608484 2.5875621 -0.41789117 38
-4.0264831 3.9142165 0.22526625 15
-4.2917719 2.3263638 0.28429982 90
-4.1241474 3.950772 0.46444419 71
-4.2840519 2.3542039 0.60020649 89
-4.1229658 3.966233 1.0413325 46
-4.2693138 2.3694425 1.3083303 76
-4.283864 2.2950628 0.028245902 49
-4.2422566 2.8217516 0 56
-4.1849742 3.3648057 -0.031209977 75
-2.9758673 2.8777792 -0.046900775 43
-4.141922 2.2171576 0.13672552 11
-4.1414814 2.7359924 0.1170522 5
-4.2011704 3.3754139 0.094068468 66
-2.97685 2.8767195 0.049487386 41
-1.8378237 0.98419386 -0.97147626 18
-2.3298957 1.243526 -0.69146866 34
-2.7099338 1.4646446 -0.42799017 34
-3.0237579 1.6288067 -0.32615432 32
-2.9589746 1.6085987 -0.21795525 14
-4.2349863 2.8457925 -0.35997471 48
-2.8866525 2.3450823 -0.28412378 38
-2.6921439 2.6354218 -0.30872813 34
-2.9075208 1.555081 -0.13433403 12
-4.2339945 2.8151901 -0.23684342 66
-4.1775494 3.3624389 -0.2810441 84
-2.9766922 2.8815949 -0.24127693 43
-2.8465438 1.5148089 -0.05628401 14
-4.088706 2.6980531 -0.11398938 26
-4.0470209 3.2457554 -0.15097988 6
-2.9658654 2.8561108 -0.14378592 41
-2.2858841 2.2221491 -0.57826203 36
-2.6624498 2.6072636 -0.41956946 28
-4.0520663 3.9666913 0.22747082 29
-4.2880049 2.3437247 0.28459051 79
-4.1210914 3.9755239 0.46566001 73
-4.280149 2.3715489 0.60081589 84
-4.1196957 3.9908688 1.0440186 45
-4.2694464 2.3890474 1.3109185 76
-4.2802253 2.3123786 0.028274961 55
-4.2448416 2.8448937 0 55
-4.1809745 3.3856866 -0.031268097 45
-2.9550581 2.8776853 -0.046730846 44
-4.1385555 2.2339761 0.13687097 12
-4.1693554 2.7753606 0.1181131 6
-4.197135 3.3963478 0.094242997 60
-2.9596241 2.8801193 0.049367853 45
-1.8343772 0.99060309 -0.97147626 20
-2.3298001 1.2539437 -0.69273508 33
-2.7091532 1.476465 -0.42867824 34
-3.0224278 1.6417276 -0.32662702 33
-2.9577167 1.6213161 -0.21827814 13
-4.2332869 2.8661506 -0.36067846 47
-2.878449 2.3551443 -0.28412378 38
-2.6900258 2.6517999 -0.30954489 34
-2.906472 1.5675923 -0.13453756 12
-4.2407398 2.8410721 -0.23777404 74
-4.1735444 3.3832893 -0.28156745 84
-2.9558928 2.881515 -0.24040484 44
-2.8456438 1.5271 -0.056371272 14
-4.0875883 2.7178442 -0.11422201 25
-4.0628815 3.281846 -0.15199804 6
-2.9451158 2.85601 -0.14326243 42
-2.2886603 2.2404394 -0.58093917 32
-2.660408 2.6235187 -0.4206883 29
-4.0844479 4.0264068 0.23007621 27
-4.2841692 2.3610878 0.2848812 79
-4.1179128 4.0003023 0.46687582 70
-4.2761774 2.3888953 0.60142523 84
-4.1163034 4.0155301 1.0467049 46
-4.2652874 2.4063091 1.3122126 62
-4.2809091 2.3320892 0.028333079 64
-4.2431726 2.8652897 0 49
-4.1807551 3.4097404 -0.031355273 69
-2.9342861 2.877481 -0.046560917 44
-4.1351218 2.2507982 0.13701642 13
-4.1928525 2.8121722 0.11905612 9
-4.1968794 3.4204526 0.094504781 72
-2.9388399 2.879935 0.049188551 45
-1.8309081 0.99700022 -0.97147626 20
-2.3296599 1.2643758 -0.6940015 32
-2.7083232 1.4882978 -0.42936635 33
-3.0123131 1.6498767 -0.32615432 35
-2.9564064 1.6340442 -0.21860103 15
-4.2356172 2.8893421 -0.36173412 49
-2.8702104 2.3651776 -0.28412378 37
-2.6842897 2.6646845 -0.30995324 36
-2.8965936 1.5753413 -0.13433403 8
-4.2349362 2.8586521 -0.2380067 71
-4.1733122 3.4073107 -0.28235248 84
-2.9386923 2.8848219 -0.23982346 45
-2.8402958 1.5370238 -0.056371272 13
-4.0780764 2.732096 -0.11422201 24
-93.046532 75.6978 -3.4908643 -1
-2.9279785 2.8592906 -0.14291345 41
0.1 0.1 0.1 -1
-2.6618109 2.6432924 -0.42236659 34
-4.0916419 4.061758 0.23127869 31
-4.2846279 2.380877 0.28546259 79
-4.1146116 4.0251069 0.46809164 77
-4.2764606 2.4086783 0.60264391 83
-4.1127892 4.040216 1.049391 47
-4.2652578 2.4259586 1.3148007 47
-4.281507 2.3518326 0.028391199 68
-4.2414131 2.8857088 0 48
-4.180418 3.4338341 -0.031442452 66
-2.9135516 2.877167 -0.046390984 44
-4.136003 2.2700281 0.13730733 15
-4.2202854 2.85198 0.12011702 16
-4.196507 3.444597 0.094766565 83
-2.9180932 2.8796406 0.049009249 45
-1.8234441 1.0012039 -0.96936435 19
-2.3294754 1.2748222 -0.69526792 45
-2.7074435 1.5001427 -0.43005443 20
-2.9847491 1.6483498 -0.32379088 36
-2.9550428 1.646783 -0.21892394 14
-4.2337265 2.9097595 -0.36243787 64
-2.8657734 2.378366 -0.28450465 37
-2.6855447 2.6846075 -0.31117836 39
-2.8910768 1.5854427 -0.13433403 8
-4.233192 2.879035 -0.23847201 72
-4.1691065 3.4282002 -0.28287584 81
-2.9179552 2.8845348 -0.23895137 44
-2.8393016 1.5493236 -0.056458537 12
-4.0850868 2.7575011 -0.11468728 25
-4.1558485 3.4051578 -0.15636162 24
-2.9072914 2.8589828 -0.14238995 42
0.1 0.1 0.1 -1
-2.6631079 2.6631079 -0.42404485 35
-4.0880384 4.0866117 0.23187993 39
-4.2806458 2.3982582 0.28575328 71
-4.114737 4.0534348 0.46971273 75
-4.2723422 2.4260418 0.60325325 86
-4.1126499 4.0683856 1.0529726 47
-4.2651429 2.445637 1.3173889 45
-4.2820191 2.3716085 0.028449317 81
-4.2354383 2.9033237 0 53
-4.1799636 3.4579668 -0.031529631 62
-2.8928552 2.8767433 -0.046221055 44
-4.1324267 2.2868717 0.13745278 24
-4.2268314 2.8779471 0.12058853 28
-4.1998696 3.4719658 0.095115617 81
-2.8938382 2.8757124 0.048770178 45
-1.8199382 1.0075629 -0.96936435 22
-2.3292463 1.2852827 -0.69653434 43
-2.7065139 1.5119997 -0.43074253 18
-2.9398372 1.6369646 -0.31953669 37
-2.9536264 1.659532 -0.21924683 12
-4.2317448 2.9301989 -0.36314166 66
-2.8651044 2.3947496 -0.28526637 38
-2.6831813 2.7010362 -0.31199509 41
-2.885525 1.5955248 -0.13433403 8
-4.2313566 2.8994403 -0.23893732 83
-4.1686516 3.4522865 -0.28366089 76
-2.8972557 2.8841381 -0.23807928 45
-2.8382564 1.561635 -0.056545798 13
-4.0754366 2.771744 -0.11468728 22
-4.1555014 3.4291868 -0.15679799 39
-2.886642 2.8585656 -0.14186646 42
0.1 0.1 0.1 -1
-2.6642988 2.6829643 -0.42572314 36
-4.0983953 4.1256676 0.23328283 46
-4.2809405 2.4180958 0.28633466 61
-4.111177 4.0783024 0.47092855 59
-4.2724614 2.4458716 0.60447192 70
-4.1088786 4.0931315 1.0556587 46
-4.2607617 2.4629273 1.318683 45
-4.27808 2.3889787 0.028478377 81
-4.2335062 2.9237731 0 66
-4.1793919 3.4821379 -0.031616811 50
-2.8757303 2.8797483 -0.046107769 44
-4.1287832 2.3037176 0.13759823 17
-4.2291255 2.9011669 0.12094216 29
-4.1992507 3.496201 0.095377401 74
-2.8767142 2.8787234 0.048650645 44
-1.8124527 1.0117005 -0.96725243 18
-2.3289723 1.2957571 -0.69780076 42
-2.7055347 1.5238683 -0.43143061 17
-2.8950417 1.6252861 -0.31528252 32
-2.952157 1.6722913 -0.21956973 13
-4.229672 2.9506598 -0.36384541 69
-2.8605416 2.4079466 -0.28564724 36
-2.6807361 2.7174811 -0.31281185 29
-2.8799381 1.6055875 -0.13433403 11
-4.2294302 2.919868 -0.23940264 84
-4.1642442 3.4732132 -0.28418425 77
-2.8765948 2.8836322 -0.2372072 43
-2.8371594 1.573958 -0.056633059 35
-4.0739832 2.791604 -0.11491991 23
-4.1780992 3.4724219 -0.15810706 45
-2.8660314 2.8580389 -0.14134297 43
-2.7633688 2.7817574 -0.71122664 33
-2.6653833 2.7028613 -0.42740142 38
-84.205551 85.359764 4.8099556 -1
-4.2768111 2.4354944 0.28662536 72
-4.1074934 4.1031942 0.4721444 65
-4.2681961 2.4632509 0.60508126 53
-4.1084576 4.1213846 1.0592402 48
-4.2604842 2.4826484 1.3212712 47
-4.2784286 2.4088035 0.028536497 49
-4.2273788 2.9413888 0 51
-4.1748719 3.5031333 -0.031674929 52
-2.855099 2.8791187 -0.045937836 44
-4.1294284 2.3230166 0.13788913 11
-4.2313089 2.9244378 0.12129579 34
-4.1985135 3.5204742 0.095639184 81
-2.8560832 2.8781009 0.048471343 45
-1.8089101 1.018021 -0.96725243 17
-2.3286538 1.3062452 -0.69906718 31
-2.7045054 1.5357486 -0.43211868 34
-2.8676915 1.6231226 -0.31291908 32
-2.9506345 1.6850604 -0.21989262 14
-4.2275076 2.9711421 -0.36454916 72
-2.8597245 2.4243648 -0.28640896 32
-2.6782084 2.7339416 -0.31362858 32
-2.8830261 1.6205263 -0.1347411 11
-4.2233129 2.9374657 -0.23963529 81
-4.1635652 3.4973624 -0.28496927 71
-2.8524599 2.8794713 -0.23604442 41
-2.8316481 1.5838521 -0.056633059 37
-4.0683274 2.8086476 -0.11503623 22
-4.1582875 3.4805694 -0.15781616 50
-2.8454595 2.8574035 -0.14081948 43
-2.7709169 2.8088982 -0.71568853 31
-2.662885 2.7192488 -0.42852026 37
-83.907074 85.653175 4.8099556 -1
-4.2769413 2.4553788 0.28720677 71
-4.1071992 4.1316442 0.47376549 63
-4.2681508 2.4831259 0.6063 64
-4.1078892 4.1496849 1.0628217 57
-4.2559566 2.4999511 1.3225653 48
-4.2743425 2.4261913 0.028565556 53
-4.2252741 2.9618671 0 60
-4.1740746 3.5273666 -0.031762108 64
-2.8345075 2.8783803 -0.045767907 45
-4.1256418 2.3398826 0.13803458 13
-4.2292795 2.9449027 0.12153155 40
-4.1938381 3.5415592 0.095813714 81
-2.8354914 2.8773696 0.048292041 45
-1.8014038 1.0220926 -0.96514058 18
-2.3282902 1.3167468 -0.7003336 30
-2.7034261 1.5476402 -0.43280679 33
-2.8620083 1.6331228 -0.31291908 29
-2.9490588 1.6978393 -0.22021553 14
-4.2252517 2.9916449 -0.36525294 60
-2.8588276 2.4408066 -0.28717068 29
-2.6755984 2.7504177 -0.31444532 24
-2.8860447 1.6355064 -0.13514817 12
-4.2212138 2.9579222 -0.24010061 78
-4.1627679 3.5215492 -0.28575432 81
-2.8318899 2.8787355 -0.23517233 42
-2.8304567 1.5961823 -0.05672032 14
-4.0667062 2.8285401 -0.11526886 22
-4.1690407 3.5143907 -0.15868887 55
-2.8178999 2.8495533 -0.13994698 43
-2.7679808 2.8255823 -0.71747327 32
-2.6672328 2.7427754 -0.43075797 31
-83.607582 85.945541 4.8099556 -1
-4.2726645 2.4727933 0.28749746 69
-4.1032553 4.1565957 0.47498131 71
-4.2680187 2.5030305 0.60751867 60
-4.1037245 4.1745224 1.0655079 53
-4.2513599 2.5172527 1.3238595 49
-4.2745266 2.4460635 0.028623676 64
-4.2230783 2.9823668 0 63
-4.1617365 3.5419154 -0.031762108 53
-2.813956 2.8775332 -0.045597978 45
-4.1261263 2.359231 0.1383255 15
-4.2312503 2.9682596 0.12188517 41
-4.1928749 3.5658932 0.096075498 81
-83.923668 85.759895 1.434417 -1
-1.797825 1.0283744 -0.96514058 19
-2.3278818 1.3272619 -0.70160007 31
-2.7022967 1.559543 -0.43349487 34
-2.847661 1.6381391 -0.31197369 31
-2.9474297 1.7106277 -0.22053842 14
-4.2229042 3.0121682 -0.36595669 72
-2.8540704 2.4540215 -0.28755155 33
-2.6694436 2.7633245 -0.3148537 27
-2.884656 1.6480489 -0.1353517 13
-4.2190237 2.9784 -0.24056591 81
-4.1580515 3.5425348 -0.28627768 74
-2.8148479 2.8814619 -0.23459095 41
-2.8292136 1.6085236 -0.056807581 15
-4.0609016 2.845587 -0.11538517 19
-4.1681781 3.5386257 -0.15912522 72
-2.8044348 2.8558071 -0.13977249 42
-2.7718227 2.8493326 -0.72104281 35
-2.6541908 2.7484951 -0.43019855 32
-83.307068 86.23687 4.8099556 -1
-4.2726297 2.4927235 0.28807884 76
-4.0991869 4.1815701 0.47619712 70
-4.2677999 2.5229645 0.60873735 60
-4.1028724 4.2029018 1.0690894 49
-4.2508416 2.5370276 1.3264476 55
-4.2702932 2.4634678 0.028652735 64
-4.2207904 3.0028868 0 47
-4.1455512 3.5531671 -0.031733051 50
-83.594368 86.08213 -1.3594428 -1
-4.1221962 2.3761156 0.13847095 15
-4.2290277 2.9887812 0.12212093 55
-4.1879959 3.5870116 0.09625002 81
-83.623802 86.052322 1.434417 -1
-1.7942244 1.0346437 -0.96514058 18
-2.3274281 1.33779 -0.70286649 32
-2.7011173 1.5714567 -0.43418294 34
-2.8376195 1.6455722 -0.311501 38
-2.9414403 1.7209057 -0.22053842 14
-4.2204647 3.0327115 -0.36666045 76
-2.8417182 2.4607055 -0.28717068 34
-2.6597817 2.7726257 -0.3148537 31
-2.8875439 1.6630949 -0.13575877 12
-4.2126718 2.9960036 -0.24079856 76
-4.1570287 3.5667818 -0.28706273 87
-2.7769682 2.8626082 -0.23226538 31
-2.827919 1.6208756 -0.056894846 14
-4.0591111 2.8655105 -0.1156178 18
-4.1709952 3.5661452 -0.15970704 76
-2.7909606 2.8620014 -0.13959798 44
-2.7686961 2.8660674 -0.72282755 37
-2.6067517 2.7182956 -0.42404485 43
-2.7426412 2.8590009 0.15892895 45
-4.2725077 2.5126834 0.28866023 63
-4.0984707 4.2101369 0.47781822 54
-4.2674932 2.5429273 0.60995609 50
-4.0984483 4.2277942 1.0717756 48
-4.246098 2.5543401 1.3277417 48
-4.2703123 2.483386 0.028710853 49
-4.2184105 3.0234275 0 47
-4.1217685 3.5578151 -0.031645872 47
-83.293373 86.373405 -1.3594428 -1
-4.1225195 2.3955121 0.13876185 14
-4.2267127 3.0093234 0.12235668 81
-4.1868057 3.6114044 0.096511811 79
-83.322914 86.343697 1.434417 -1
-1.7906018 1.0409005 -0.96514058 20
-2.3269293 1.3483312 -0.70413291 33
-2.6998873 1.5833811 -0.43487105 36
-2.8275609 1.6529553 -0.31102833 38
-2.9397132 1.7336974 -0.22086132 15
-4.2179332 3.0532744 -0.36736423 77
-2.8143241 2.4542265 -0.28526637 21
-82.492989 86.595901 -9.8008928 -1
-2.8860414 1.6756727 -0.13596231 13
-4.2103081 3.0165081 -0.24126388 73
-4.1558871 3.5910647 -0.28784776 79
-83.112656 86.276367 -6.9766822 -1
-2.8265724 1.6332381 -0.056982107 15
-4.0572309 2.8854558 -0.11585043 18
-4.1698837 3.5904663 -0.16014339 68
-83.428596 86.151787 -4.1879396 -1
-2.7654862 2.8828151 -0.7246123 36
0.1 0.1 0.1 -1
-2.7429826 2.8794091 0.15953019 36
-4.2722983 2.5326726 0.28924161 68
-4.0941405 4.235167 0.47903404 64
-4.262845 2.5603633 0.61056542 63
-4.097312 4.2562504 1.0753572 52
-4.2454157 2.5741541 1.3303299 47
-4.2702446 2.5033343 0.028768973 48
-4.2159386 3.0439878 0 66
-90.563622 78.725754 -0.69742966 -1
-82.991371 86.663628 -1.3594428 -1
-4.1227574 2.4149401 0.13905276 14
-4.2243061 3.0298858 0.12259244 90
-4.1817226 3.6325541 0.096686333 74
-83.021011 86.634026 1.434417 -1
-1.7869575 1.0471444 -0.96514058 21
-2.3263853 1.3588852 -0.70539933 33
-2.7028701 1.5978364 -0.4362472 19
-2.8174853 1.6602881 -0.31055564 39
-2.9379325 1.746498 -0.22118421 14
-4.2153091 3.0738564 -0.36806798 76
-2.7945023 2.4541662 -0.28412378 33
-82.190208 86.883324 -9.8008928 -1
-2.8801746 1.6857367 -0.13596231 13
-4.2078528 3.0370326 -0.24172918 81
-4.1583934 3.6186607 -0.28889447 66
-82.810989 86.565964 -6.9766822 -1
-2.8208542 1.6430948 -0.056982107 14
-4.0552607 2.9054232 -0.11608306 17
-4.1648774 3.6115487 -0.16043431 69
-83.127365 86.442482 -4.1879396 -1
-2.7655866 2.9031372 -0.72728944 36
0.1 0.1 0.1 -1
-2.7363482 2.8925958 0.1597306 31
-4.2677164 2.5501306 0.28953233 66
-4.0931373 4.2638125 0.48065513 67
-4.2623725 2.580368 0.6117841 53
-4.0960269 4.28475 1.0789387 49
-4.2446461 2.5939946 1.332918 49
-4.2700896 2.5233123 0.028827092 68
-4.2133746 3.0645678 0 68
-90.288261 79.041397 -0.69742966 -1
-82.688347 86.952797 -1.3594428 -1
-4.12291 2.4343987 0.13934366 14
-4.2218075 3.0504677 0.12282819 69
-4.180305 3.6570036 0.096948117 81
-2.1575637 2.2672493 0.037414376 4
-1.7832915 1.0533757 -0.96514058 20
-2.3299637 1.3719059 -0.70793217 32
-2.7015307 1.6097965 -0.43693531 20
-2.8073931 1.6675708 -0.31008294 36
-2.9318182 1.7567426 -0.22118421 14
-4.2125931 3.0944574 -0.36877173 77
-2.7635117 2.4440889 -0.2818386 39
-81.886429 87.169693 -9.8008928 -1
-2.8785756 1.6983186 -0.13616586 13
-4.2093449 3.0605137 -0.24242716 90
-4.1494918 3.636445 -0.28915617 81
-82.508316 86.8545 -6.9766822 -1
-2.8194125 1.6554626 -0.057069369 14
-4.0532007 2.9254119 -0.11631569 16
-4.1635389 3.6359272 -0.16087066 69
-82.825111 86.732124 -4.1879396 -1
-2.7621977 2.9199212 -0.72907424 36
0.1 0.1 0.1 -1
-2.7091315 2.8839231 0.15872853 45
-4.2673407 2.570163 0.29011372 82
-4.0919833 4.2925029 0.48227623 70
-4.2618122 2.6004004 0.61300278 47
-4.0912056 4.3097243 1.0816249 46
-4.2437901 2.6138611 1.3355063 47
-4.2698464 2.5433197 0.028885212 71
-4.2147512 3.0881219 0 63
-90.01181 79.356087 -0.69742966 -1
-2.0287139 2.1483073 -0.033476278 6
-4.1186819 2.4513316 0.13948911 13
-4.2192163 3.0710695 0.12306395 55
-4.1787677 3.6814876 0.097209901 90
-2.1599381 2.2856681 0.037593678 5
-1.7757095 1.0572755 -0.96302867 17
-2.3293202 1.3824993 -0.70919859 30
-2.7001405 1.6217667 -0.43762338 21
-2.8015552 1.6773603 -0.31008294 36
-2.9342103 1.7721249 -0.22183001 16
-4.2097845 3.1150765 -0.36947551 61
-2.7512405 2.4504046 -0.28145775 40
-81.58165 87.455002 -9.8008928 -1
-2.8769238 1.71091 -0.13636939 13
-4.2066951 3.0810909 -0.24289247 90
-4.1554914 3.6674271 -0.29046455 69
-82.204636 87.141975 -6.9766822 -1
-2.8179188 1.6678405 -0.05715663 11
-4.0510502 2.9454215 -0.11654833 7
-90.072075 79.213852 -3.4908643 -1
-82.521858 87.020706 -4.1879396 -1
0.1 0.1 0.1 -1
0.1 0.1 0.1 -1
-2.6888244 2.8824024 0.15812728 49
-4.26261 2.5876334 0.29040441 81
-4.0872526 4.3176179 0.48349205 64
-4.2611642 2.6204605 0.61422151 47
-4.0896339 4.3382969 1.0852064 47
-4.2428465 2.6337531 1.3380945 49
-4.2652292 2.5607824 0.028914271 46
-4.2119918 3.1087537 0 60
-89.734253 79.6698 -0.69742966 -1
-2.0041027 2.1371408 -0.033193063 6
-4.1186719 2.4708359 0.13978001 11
-4.2165332 3.0916898 0.1232997 53
-4.1771102 3.7060053 0.097471692 85
-2.1724739 2.3150685 0.037952285 6
-1.7720081 1.0634675 -0.96302867 22
-2.3286312 1.393105 -0.71046501 36
-2.6986995 1.6337469 -0.43831149 18
-2.7956829 1.6871294 -0.31008294 36
-2.9237444 1.779762 -0.2215071 16
-4.2108822 3.1386948 -0.37053114 69
-2.7686493 2.483295 -0.28412378 39
-2.0623753 2.2263832 -0.24869767 4
-2.870934 1.7209419 -0.13636939 13
-4.2039523 3.1016867 -0.24335778 87
-4.1501284 3.6885443 -0.29098791 58
-2.0065489 2.1419957 -0.17092872 6
-2.8163731 1.680228 -0.057243895 11
-4.0488095 2.9654515 -0.11678096 8
-89.795021 79.527779 -3.4908643 -1
-2.0143311 2.1390517 -0.10260452 5
0.1 0.1 0.1 -1
-2.0018945 2.1618493 -0.33173957 21
-2.6651661 2.8771102 0.15732563 51
-4.2620673 2.607707 0.29098579 72
-4.0858102 4.3463831 0.48511314 65
-4.2604275 2.6405475 0.61544019 50
-4.0845509 4.3633199 1.0878925 46
-4.241816 2.6536701 1.3406826 48
-4.2648201 2.5808325 0.028972391 46
-4.2091398 3.1294038 0 66
-3.1495829 2.8160522 -0.024555335 39
-1.9864089 2.1331465 -0.03302313 6
-4.1142988 2.4877837 0.13992548 11
-4.2177777 3.115299 0.12365334 78
-4.1753321 3.730556 0.097733475 88
-2.1575625 2.3153224 0.037832748 6
-1.7682852 1.0696465 -0.96302867 17
-2.3278964 1.4037228 -0.71173143 35
-2.6972079 1.6457367 -0.43899956 18
-2.7940295 1.6994646 -0.31055564 36
-2.9260201 1.7951754 -0.2221529 16
-4.2078772 3.1593635 -0.37123492 68
-2.7747631 2.5063112 -0.28564724 37
-1.9769958 2.1492138 -0.23930514 6
-2.8691854 1.7335364 -0.13657293 12
-4.2011175 3.1223009 -0.2438231 63
-89.292686 79.921043 -6.2803149 -1
-1.9922601 2.1416774 -0.17034733 7
-2.814775 1.692625 -0.057331156 11
-4.0464783 2.985502 -0.11701359 8
-89.516869 79.840736 -3.4908643 -1
-2.0034392 2.1424203 -0.10243002 6
0.1 0.1 0.1 -1
-1.9842466 2.1578519 -0.33006132 49
-2.6449599 2.875365 0.15672438 50
-4.2571874 2.6251884 0.29127648 81
-4.0842161 4.3751907 0.48673424 68
-4.2596025 2.6606615 0.61665887 56
-4.0826921 4.3919625 1.0914741 50
-4.2406983 2.6736121 1.3432709 52
-4.2600536 2.5983074 0.02900145 45
-4.2101965 3.153069 0 49
-3.1471653 2.8337202 -0.024613455 39
-1.9687674 2.129055 -0.032853201 7
-4.1098576 2.5047309 0.14007093 11
-4.2148981 3.1359704 0.12388909 82
-4.1734338 3.7551396 0.097995259 90
-2.1392803 2.3118308 0.037653446 6
-1.760671 1.0734532 -0.96091676 20
-2.331249 1.4168644 -0.71426433 34
-2.6956654 1.6577359 -0.43968764 17
-2.7880802 1.7092072 -0.31055564 36
-2.9239798 1.8080024 -0.2224758 16
-4.2087574 3.1830583 -0.37229055 66
-2.7918134 2.5394642 -0.28831327 36
-1.9526772 2.1377051 -0.23726329 39
-2.8673837 1.7461395 -0.13677646 12
-4.1981893 3.1429331 -0.2442884 63
-89.013168 80.232246 -6.2803149 -1
-1.9644502 2.1266191 -0.16860315 8
-2.8131249 1.7050314 -0.057418417 14
-4.0440564 3.0055721 -0.11724622 9
-89.237633 80.152725 -3.4908643 -1
-1.9687465 2.1201072 -0.10103405 7
0.1 0.1 0.1 -1
-1.9666512 2.1537578 -0.32838303 26
-2.6281681 2.8772027 0.15632355 55
-4.2564769 2.6453023 0.29185787 79
-4.079083 4.4003849 0.48795009 67
-4.2586889 2.6808016 0.61787754 49
-4.0806828 4.4206452 1.0950556 48
-4.2394924 2.6935787 1.3458591 52
-4.2594771 2.6183987 0.029059568 61
-4.2071481 3.1737685 0 52
-3.1483665 2.8547642 -0.024700634 42
-1.9545605 2.1285491 -0.032739915 8
-4.1096063 2.5242937 0.14036183 10
-4.211926 3.1566594 0.12412485 82
-4.1714144 3.7797551 0.09825705 78
-81.188477 88.353683 1.434417 -1
-1.7569132 1.0795926 -0.96091676 20
-2.3304136 1.4275199 -0.71553075 17
-2.6982813 1.6723534 -0.44106382 28
-2.7863314 1.7215453 -0.31102833 38
-101.6308 63.333454 -7.7495198 -1
-4.2055559 3.2037752 -0.37299433 71
-2.7866082 2.5525615 -0.28869414 36
-1.9351593 2.133435 -0.23603818 9
-2.8697867 1.7613646 -0.13718353 13
-4.1991563 3.16659 -0.24498637 75
-88.732559 80.542473 -6.2803149 -1
-1.9570149 2.1334634 -0.16860315 8
-2.8156884 1.7200528 -0.05759294 15
-4.041543 3.0256615 -0.11747885 19
-3.1802235 2.8765786 -0.12479839 47
-1.9681089 2.1343136 -0.10138304 8
-2.0040803 2.193979 -0.53899735 47
-1.9524461 2.1532481 -0.32726416 59
-2.6113956 2.8789582 0.15592273 54
-4.2556777 2.6654432 0.29243928 74
-4.0771985 4.4292631 0.48957118 57
-4.2576866 2.7009678 0.61909628 55
-4.0785232 4.4493675 1.0986371 48
-4.2381992 2.7135692 1.3484472 49
-4.2545614 2.6358843 0.029088628 53
-4.2040057 3.1944849 0 60
-3.1420743 2.8691082 -0.024729693 46
-1.9403812 2.12797 -0.032626629 8
-4.1050196 2.541254 0.14050728 10
-4.2088604 3.177366 0.1243606 83
-4.1655807 3.8010323 0.098431572 79
-1.9141499 2.0977316 0.03394787 4
-1.753134 1.0857188 -0.96091676 18
-2.3295321 1.4381869 -0.71679717 28
-2.6966276 1.6843855 -0.4417519 20
-2.7803051 1.7312609 -0.31102833 39
-101.4091 63.687824 -7.7495198 -1
-4.2062178 3.2275445 -0.37404996 68
-2.7776811 2.562273 -0.28869414 37
-1.9377058 2.1512852 -0.23726329 9
-2.863621 1.7713712 -0.13718353 13
-4.196032 3.1872706 -0.24545169 61
-88.450874 80.851715 -6.2803149 -1
-1.9428332 2.1329012 -0.16802177 8
-2.8139243 1.732492 -0.057680205 16
-4.038939 3.0457699 -0.11771148 18
-3.1516888 2.8708341 -0.12407113 48
-1.9471483 2.1264291 -0.10068505 8
-1.9849644 2.1914155 -0.53632021 50
-1.9367654 2.1540182 -0.32614532 62
-2.5926313 2.8824425 0.1555219 54
-4.2486944 2.6859131 0.29272997 77
-4.0720487 4.4610257 0.49119228 54
-4.254694 2.7241304 0.62031496 55
-4.0730848 4.4809728 1.1022187 48
-4.2349081 2.7365408 1.3510354 50
-4.2519617 2.6589847 0.029146748 58
-4.198525 3.2181501 0 64
-3.1226726 2.8754706 -0.024671573 48
-1.9280972 2.1323707 -0.032569982 8
-4.1028156 2.5637238 0.1407982 9
-4.2034678 3.201025 0.12459636 85
-4.1680164 3.8353734 0.098867886 83
-1.9154096 2.116853 0.034127172 7
-1.7485708 1.0930527 -0.96091676 18
-2.3316977 1.4530485 -0.71933001 17
-2.6937377 1.6983076 -0.44244 16
-2.7772434 1.7455406 -0.311501 38
-101.14143 64.112045 -7.7495198 -1
-4.2005496 3.2512407 -0.37475374 77
-2.7669241 2.5738857 -0.28869414 39
-1.9187188 2.1482329 -0.23603818 10
-2.8561759 1.7833508 -0.13718353 12
-4.1905737 3.2108946 -0.24591699 76
-3.1169419 2.8732109 -0.22216614 45
-1.9305362 2.1373165 -0.16773108 9
-2.8193808 1.7521802 -0.057941988 17
-4.0341024 3.0687141 -0.11794411 16
-3.1285937 2.8738678 -0.12363477 48
-1.9315058 2.1271679 -0.10033605 9
-1.9707228 2.1910155 -0.53453541 57
-1.9226164 2.153353 -0.32502648 66
-2.5758979 2.8840227 0.15512106 54
-4.2477126 2.7060914 0.29331136 77
-4.0698395 4.4899821 0.49281338 51
-4.2493296 2.7416561 0.62092429 48
-4.0706029 4.5097699 1.1058003 48
-4.2334247 2.7565773 1.3536236 53
-4.2511139 2.6791422 0.029204866 63
-4.1951814 3.2388971 0 72
-3.0979514 2.8727546 -0.024555335 48
-1.9139616 2.1316478 -0.032456696 9
-4.1023002 2.5833561 0.1410891 8
-4.2041669 3.2248051 0.12494998 87
-4.1619368 3.8566952 0.099042408 79
-1.9146917 2.130964 0.034246705 8
-1.7447447 1.0991497 -0.96091676 18
-2.3266115 1.4611788 -0.71933001 16
-2.6961534 1.7130119 -0.44381618 15
-2.7753384 1.7578878 -0.31197369 38
-100.91703 64.464706 -7.7495198 -1
-4.1970425 3.2720165 -0.3754575 79
-2.7579226 2.5835283 -0.28869414 40
-1.9079018 2.1511891 -0.23562981 10
-2.8541617 1.7959706 -0.13738707 13
-4.1912017 3.2346575 -0.24661496 87
-3.0959151 2.8738825 -0.2213811 46
-1.916398 2.1366105 -0.16714968 9
-2.8090105 1.7593573 -0.057854727 17
-4.0352697 3.0918977 -0.11829306 19
-3.1001987 2.8678017 -0.12290751 48
-1.9173764 2.1264749 -0.09998706 9
-1.9597855 2.194212 -0.53364307 59
-1.9084957 2.1526155 -0.32390761 71
-2.5558701 2.8817835 0.15451981 50
-4.2466416 2.7262955 0.29389274 69
-4.0674777 4.5189776 0.49443448 47
-4.2480545 2.7618823 0.62214297 49
-4.0712523 4.5422673 1.1102772 46
-4.2318525 2.7766368 1.3562118 48
-4.2501774 2.699326 0.029262986 56
-4.1917439 3.25966 0 63
-3.076942 2.8733134 -0.024468157 48
-1.9031819 2.134584 -0.032400053 10
-4.0974774 2.6003382 0.14123455 8
-4.2007957 3.245573 0.12518574 80
-4.1484489 3.8711996 0.099042408 72
-1.8939276 2.1227121 0.034007635 6
-1.7408973 1.1052333 -0.96091676 19
-2.3460197 1.4848119 -0.72692859 15
-2.6943281 1.7250831 -0.44450426 17
-2.7691853 1.7675648 -0.31197369 35
-4.2374291 2.7276976 -0.32612562 59
-4.1934409 3.2928076 -0.37616125 60
-2.7525141 2.5965605 -0.28907502 41
-1.8937939 2.1503563 -0.23481306 11
-101.25779 64.210579 -4.8848734 -1
-4.1877718 3.2553985 -0.24708027 84
-3.0749216 2.8744423 -0.22059606 46
-1.9056083 2.1395595 -0.16685899 10
-2.7986245 1.7664835 -0.057767466 16
-4.0323668 3.1120727 -0.11852569 25
-3.0828552 2.8717928 -0.1226166 49
-1.9032755 2.1257093 -0.09963806 9
-1.9423211 2.1899974 -0.53096592 60
-1.8976868 2.155535 -0.32334819 78
-2.5391915 2.8831892 0.15411898 51
-4.2412901 2.7438138 0.29418343 66
-4.0616422 4.5442953 0.49565029 48
-4.2425394 2.7794137 0.62275237 49
-4.0684538 4.5711489 1.1138587 47
-4.2301922 2.7967188 1.3587999 49
-4.2491517 2.7195361 0.029321104 52
-4.1921487 3.2835214 0 53
-3.0559661 2.8737607 -0.024380978 47
-1.8890909 2.1337276 -0.032286767 10
-4.0967965 2.6200106 0.14152545 7
-4.2012753 3.2694263 0.12553938 85
-87.434235 82.163666 2.0942888 -1
-1.8898218 2.1330526 0.034067404 7
-1.733211 1.108861 -0.95880485 17
-2.3489785 1.4981941 -0.72946143 13
-2.6966128 1.7398475 -0.44588044 19
-2.7671847 1.7799131 -0.31244639 38
-4.2320681 2.7451878 -0.32644853 62
-4.1897449 3.3136134 -0.37686503 53
-2.7434337 2.6061528 -0.28907502 41
-1.8829958 2.1532025 -0.2344047 11
-101.03304 64.563644 -4.8848734 -1
-4.1881804 3.2792339 -0.24777824 81
-3.0539622 2.8748908 -0.21981102 47
-1.8948214 2.1424594 -0.16656829 10
-2.7966595 1.7789249 -0.057854727 15
-4.0293717 3.1322651 -0.11875833 34
-3.0618768 2.8722782 -0.12218025 49
-1.8925235 2.1286056 -0.099463567 9
-1.9281617 2.1893799 -0.52918118 64
-1.8836107 2.1546645 -0.32222933 74
-2.5192451 2.8807526 0.15351774 52
-4.2400498 2.7640536 0.29476482 60
-4.062295 4.5770817 0.49767667 48
-4.2410951 2.799674 0.62397105 48
-4.0655031 4.6000667 1.1174402 48
-4.2284427 2.8168232 1.3613882 52
-4.2480364 2.7397718 0.029379224 68
-4.1885128 3.3043284 0 56
-3.0313947 2.8706589 -0.02426474 46
-1.8783301 2.1365538 -0.032230124 10
-4.0918269 2.6370025 0.14167091 6
-4.1977057 3.2902389 0.12577513 75
-87.146896 82.468369 2.0942888 -1
-1.9319005 2.1959424 0.034963913 9
-1.7293298 1.1149043 -0.95880485 21
-2.3437347 1.5063844 -0.72946143 11
-2.6946754 1.7519493 -0.44656852 18
-2.7651317 1.7922689 -0.31291908 35
-4.2266364 2.7626736 -0.32677141 61
-4.1859555 3.3344333 -0.37756878 58
-2.7379224 2.6191595 -0.28945586 41
-1.8722008 2.1559997 -0.23399633 12
-100.80705 64.915916 -4.8848734 -1
-4.1845517 3.300019 -0.24824356 81
-3.0330374 2.8752282 -0.21902597 47
-1.8807437 2.1415594 -0.1659869 10
-101.01114 64.748459 -2.0942888 -1
-4.0262852 3.1524742 -0.11899096 18
-3.0409327 2.8726525 -0.12174389 50
-1.8817747 2.1314528 -0.099289067 9
-1.9140303 2.1886904 -0.52739638 67
-1.872821 2.1574743 -0.32166991 79
-2.5026228 2.8819845 0.15311691 57
-4.2387195 2.7843182 0.29534623 48
-4.0594735 4.6061893 0.49929774 48
-4.2395606 2.8199582 0.62518972 49
-4.0656447 4.6327162 1.1219171 51
-4.2266045 2.8369493 1.3639764 52
-4.2468314 2.7600327 0.029437343 82
-4.1886969 3.3282607 0 63
-3.0105007 2.8708713 -0.024177561 46
-1.8675728 2.1393309 -0.032173481 10
-4.0909801 2.6567137 0.14196181 5
-4.1979651 3.3141637 0.12612876 67
-86.858498 82.772064 2.0942888 -1
-1.9900088 2.2779777 0.036159262 14
-1.7254276 1.120934 -0.95880485 24
0.1 0.1 0.1 -1
-2.6968286 1.7667726 -0.4479447 17
-2.7630262 1.8046319 -0.31339175 35
-4.2461357 2.7966218 -0.32903171 40
-4.1820712 3.355267 -0.37827253 77
-2.7323534 2.6321595 -0.28983673 41
-1.8614094 2.1587477 -0.23358795 12
-100.57983 65.267403 -4.8848734 -1
-4.1847401 3.3239253 -0.24894151 92
-3.0085356 2.8720069 -0.21797925 47
-1.8699762 2.1443493 -0.1656962 11
-100.78452 65.100662 -2.0942888 -1
-4.0231066 3.1727002 -0.11922359 13
-3.0200233 2.8729155 -0.12130753 49
-1.8710289 2.1342509 -0.099114567 10
-1.9031531 2.1916437 -0.52650404 70
-1.8620346 2.1602349 -0.32111049 78
-2.48276 2.8793519 0.15251566 54
-4.2372994 2.8046072 0.29592761 49
-4.0597796 4.6390824 0.50132412 50
-4.2379365 2.8402655 0.6264084 47
-4.062376 4.6617141 1.1254987 50
-4.2246776 2.8570967 1.3665645 50
-4.2455368 2.7803185 0.029495463 79
-4.188765 3.3522341 0 64
-2.9896421 2.8709729 -0.024090383 46
-1.8568189 2.1420591 -0.032116838 10
-4.0900459 2.676451 0.14225271 6
-4.1941957 3.3350191 0.12636451 74
-86.569046 83.074753 2.0942888 -1
-1.9689407 2.2698033 0.035920192 15
-1.7177124 1.1244677 -0.95669293 21
0.1 0.1 0.1 -1
-2.6947782 1.778904 -0.44863278 17
-2.7567101 1.8142657 -0.31339175 37
-4.2405052 2.8141856 -0.32935458 48
-4.1703334 3.3698447 -0.37827253 52
-2.7303057 2.6486239 -0.29059845 41
-1.8538626 2.1652322 -0.23358795 12
-4.1060448 2.6848738 -0.19987275 5
-4.180912 3.3447526 -0.24940683 83
-2.9876933 2.8721099 -0.21719421 47
-1.859212 2.1470902 -0.16540551 10
-100.55666 65.452072 -2.0942888 -1
-4.0237494 3.1960509 -0.11957254 13
-2.9991493 2.8730679 -0.12087117 49
-1.8602867 2.1370001 -0.098940074 9
-1.8890657 2.1908219 -0.52471924 76
-1.848021 2.1591721 -0.31999165 86
-2.4661956 2.8804107 0.15211484 50
-4.2357888 2.8249202 0.296509 50
-78.452286 90.280853 9.7265797 -1
-4.2362218 2.8605959 0.62762713 48
-4.0589542 4.6907454 1.1290802 54
-4.222661 2.8772652 1.3691528 70
-4.2441525 2.8006289 0.029553581 72
-4.1848235 3.3731108 0 63
-2.9688196 2.8709641 -0.024003204 47
-1.8460689 2.1447382 -0.032060191 10
-4.0848508 2.6934628 0.14239816 6
-4.1942339 3.3590133 0.12671815 81
-2.9442549 2.8452208 0.071467601 41
-1.9479539 2.2615099 0.035681125 13
-1.7137768 1.1304568 -0.95669293 19
-2.5137348 1.6530999 -0.78771704 12
-2.6967993 1.7937852 -0.45000896 18
-2.7545087 1.8266283 -0.31386444 37
-4.2306561 2.8289707 -0.32935458 48
-4.158545 3.3843813 -0.37827253 49
-2.7246099 2.661622 -0.29097933 41
-1.8430655 2.1678934 -0.23317958 12
-4.0924759 2.6964417 -0.19966921 6
-4.1808786 3.3687274 -0.25010478 95
-2.966887 2.8721027 -0.21640918 47
-1.8484517 2.1497822 -0.16511482 10
-100.32757 65.802681 -2.0942888 -1
-4.0203753 3.2163224 -0.11980516 10
-2.9747143 2.8696396 -0.12028936 48
-1.8495481 2.1397002 -0.098765574 9
-1.8782072 2.1936655 -0.5238269 78
-1.8372552 2.1618235 -0.3194322 86
-2.446418 2.8775828 0.15151359 50
-4.2341886 2.8452566 0.29709038 56
-78.136673 90.554153 9.7265797 -1
-4.234417 2.880949 0.62884581 48
-4.0553789 4.7198095 1.1326618 51
-4.2205548 2.8974545 1.3717409 70
-4.2385139 2.8181951 0.02958264 69
-4.1846695 3.3971519 0 53
-2.9480338 2.8708448 -0.023916025 47
-1.8353227 2.1473684 -0.032003548 10
-4.0837498 2.7132368 0.14268908 5
-4.1902647 3.37991 0.1269539 81
-2.9414709 2.8624537 0.071642131 41
-1.8913031 2.2113035 0.034784611 9
-1.7098204 1.1364322 -0.95669293 21
-2.5079491 1.6618644 -0.78771704 18
-2.6946354 1.805945 -0.45069703 21
-2.7522545 1.8389976 -0.31433713 23
-4.2248936 2.846509 -0.32967749 55
-4.1197042 3.3767445 -0.37580937 46
-2.7224107 2.6781089 -0.29174104 41
-1.8322724 2.1705058 -0.23277122 11
-4.091363 2.7162371 -0.20007628 6
-4.1768508 3.3895955 -0.25057012 95
-2.9461172 2.8719852 -0.21562414 47
-1.8376952 2.1524253 -0.16482413 11
-4.2374511 2.8004553 -0.088658221 70
-4.0169086 3.236609 -0.1200378 7
-2.9539247 2.8695583 -0.119853 48
-1.8388133 2.1423516 -0.098591082 10
-1.8673518 2.19646 -0.5229345 77
-1.8264935 2.1644263 -0.31887278 85
-2.429913 2.8784697 0.15111277 51
-4.228364 2.8628178 0.29738107 47
-77.820099 90.826347 9.7265797 -1
-4.2325215 2.9013243 0.63006449 48
-4.0516505 4.7489057 1.1362433 53
-4.2183595 2.9176641 1.3743291 68
-4.2369585 2.8385389 0.02964076 48
-4.1843982 3.4212332 0 47
-2.930855 2.8741164 -0.023857906 48
-1.8278158 2.1537619 -0.032003548 11
-4.0825601 2.7330358 0.14297998 4
-4.1900802 3.4039714 0.12730753 78
-2.9386022 2.8797021 0.071816653 44
-1.835027 2.1607296 0.033888102 9
-1.7058431 1.1423936 -0.95669293 23
-2.4900646 1.662551 -0.78391773 11
-2.6924193 1.8181117 -0.45138514 20
-2.7499475 1.8513734 -0.31480983 28
-4.2231879 2.8668442 -0.33032328 53
-4.0886602 3.3752284 -0.37404996 40
-2.7165875 2.6911042 -0.29212192 41
-1.8246847 2.1768885 -0.23277122 13
-4.1233811 2.7582791 -0.20211165 7
-4.1765952 3.4136372 -0.25126806 95
-2.9253845 2.871758 -0.2148391 47
-1.8269428 2.1550195 -0.16453342 11
-4.2359719 2.8207715 -0.088832751 73
-4.01723 3.2600603 -0.12038674 8
-2.933172 2.8693671 -0.11941665 48
-1.8280827 2.1449542 -0.098416582 11
-1.8564999 2.1992056 -0.5220421 85
-1.8189272 2.1707888 -0.31887278 85
-2.4134319 2.8792765 0.15071194 44
-4.2265925 2.8831859 0.29796249 48
-77.502586 91.097435 9.7265797 -1
-4.230535 2.9217212 0.63128322 46
-4.0509472 4.7817864 1.1407202 51
-4.216074 2.9378934 1.3769174 68
-4.2353129 2.858906 0.029698879 48
-4.18015 3.4421754 0 49
-2.9101317 2.8737898 -0.023770727 48
-1.8170649 2.1563058 -0.031946905 9
-4.0812821 2.7528596 0.14327088 4
-4.1859097 3.4249077 0.12754329 79
-2.9285324 2.8899422 0.071816653 47
-1.8339195 2.1747661 0.034007635 9
-1.7018449 1.1483412 -0.95669293 18
-2.4802327 1.668533 -0.78265131 14
-2.6942458 1.8330705 -0.45276129 17
-2.7475874 1.8637555 -0.31528252 31
-4.2172732 2.8843851 -0.33064619 54
-4.0538425 3.3703485 -0.37193868 34
-2.7142365 2.7076123 -0.29288363 41
-1.813887 2.1794143 -0.23236284 12
-4.1261559 2.7810323 -0.20272225 8
-4.1762223 3.4377182 -0.25196603 86
-2.9082406 2.8749316 -0.21431574 45
-1.8161948 2.1575649 -0.16424273 11
-4.238554 2.8438969 -0.089094535 63
-4.013567 3.2803898 -0.12061938 6
-2.9124568 2.869066 -0.11898029 48
-1.8173562 2.1475079 -0.098242082 11
-1.8456515 2.2019022 -0.52114975 88
-1.8081608 2.1733053 -0.31831336 88
-2.3969746 2.8800032 0.15031111 49
-4.2247295 2.9035764 0.29854387 46
-2.4312999 2.8780737 0.30638725 49
-4.2284579 2.9421396 0.6325019 52
-4.0468974 4.8109555 1.1443018 51
-4.2136989 2.9581423 1.3795055 62
-4.2294416 2.8764844 0.02972794 63
-4.1796551 3.4663212 0 50
-2.8894467 2.8733537 -0.023683548 48
-1.8063185 2.1588008 -0.031890262 10
-4.0757813 2.7698982 0.14341633 4
-4.1855021 3.4490347 0.12789692 78
-2.9042423 2.8860517 0.071467601 48
-1.826317 2.1811545 0.034007635 10
-1.6978261 1.1542747 -0.95669293 22
-2.5144322 1.7043192 -0.79531556 12
-2.6919155 1.8452641 -0.4534494 22
-2.7451746 1.8761436 -0.31575519 35
-4.2153964 2.9047508 -0.33129197 55
-4.0497012 3.3908823 -0.37264243 33
-2.711803 2.7241368 -0.29364535 43
-1.8030939 2.1818912 -0.23195447 13
-4.1618857 2.8262913 -0.20496115 10
-4.1718869 3.4586504 -0.25243136 90
-2.8875713 2.8744977 -0.2135307 45
-1.8086524 2.1638913 -0.16424273 11
-4.2327428 2.8614745 -0.089181796 48
-4.0098104 3.3007336 -0.12085201 6
-2.8917794 2.8686554 -0.11854393 48
-1.8098489 2.1538384 -0.098242082 10
-1.8379542 2.2083313 -0.52114975 85
-1.8005635 2.1796038 -0.31831336 85
-2.3805418 2.8806505 0.14991027 47
-4.2227759 2.9239888 0.29912525 43
-2.4308467 2.8979974 0.30760309 43
-4.2262897 2.962579 0.63372058 46
-4.0458465 4.8439298 1.1487787 54
-4.2112336 2.9784105 1.3820937 62
-4.2276244 2.8968828 0.029786058 71
-4.1752048 3.4873004 0 50
-2.872333 2.8763466 -0.02362543 48
-1.7987719 2.1650929 -0.031890262 10
-4.0784593 2.7925794 0.1438527 5
-4.1811299 3.4700084 0.12813267 76
-2.8800154 2.8820267 0.071118556 49
-1.8027108 2.1682937 0.0337088 12
-1.6937866 1.1601942 -0.95669293 17
-2.532434 1.729453 -0.80291414 10
-2.693608 1.860278 -0.45482558 28
-2.7427087 1.8885375 -0.31622788 36
-4.2134285 2.9251387 -0.33193776 62
-4.0454659 3.4114285 -0.37334621 33
-2.7057824 2.7371316 -0.29402623 42
-1.7954668 2.1881719 -0.23195447 12
-4.1891031 2.8661914 -0.20679298 30
-4.1712904 3.482795 -0.2531293 89
-2.8704672 2.8774896 -0.21300735 46
-1.7979002 2.1663506 -0.16395204 12
-4.2309918 2.8818607 -0.089356318 48
-4.0098085 3.3242812 -0.12120096 6
-2.8711407 2.8681357 -0.11810757 49
-1.7991184 2.156306 -0.098067589 11
-1.8271005 2.2109411 -0.52025735 85
-1.7929443 2.1858757 -0.31831336 92
-2.3641338 2.8812182 0.14950944 43
-4.2207313 2.944423 0.29970664 46
-2.420716 2.9064651 0.30760309 45
-4.22403 2.9830389 0.63493925 46
-4.0446148 4.8769555 1.1532556 58
-4.2086782 2.9986973 1.3846819 63
-4.2257156 2.9173036 0.029844178 76
-4.1744852 3.5115092 0 49
-2.8517134 2.8757045 -0.02353825 48
-1.7880218 2.1675019 -0.031833619 10
-4.0810285 2.8153129 0.14428905 6
-4.1804981 3.4941993 0.12848631 81
-2.8593736 2.8814168 0.070856772 50
-1.7792168 2.1552951 0.033409964 13
-1.6859964 1.1635253 -0.95458102 21
0.1 0.1 0.1 -1
-2.6952286 1.8753263 -0.45620173 30
-2.7442794 1.9037744 -0.31717327 35
-4.21137 2.9455478 -0.33258355 76
-4.0373349 3.4287574 -0.37369809 32
-2.6962116 2.7465601 -0.29402623 44
-1.7878176 2.1944258 -0.23195447 13
-4.2202053 2.9091508 -0.20882834 35
-4.1667533 3.5037632 -0.25359464 85
-2.8498633 2.8768499 -0.21222231 46
-1.7903273 2.1726131 -0.16395204 11
-4.2250285 2.899441 -0.089443579 56
-4.0096912 3.3478689 -0.1215499 4
-2.8470173 2.8639622 -0.11752576 49
-1.7915804 2.1625731 -0.098067589 10
-1.8193718 2.2173054 -0.52025735 88
-1.7853032 2.1921208 -0.31831336 90
-2.3477509 2.8817065 0.14910862 59
-4.2185955 2.9648786 0.30028805 48
-2.394676 2.895695 0.30557671 53
-4.2216792 3.0035193 0.63615799 48
-4.043201 4.9100308 1.1577326 67
-4.2060323 3.0190024 1.3872701 68
-4.2237163 2.9377463 0.029902296 66
-4.1698327 3.5325234 0 50
-2.8311334 2.8749537 -0.023451071 49
-1.780445 2.1737301 -0.031833619 10
-4.0834885 2.8380983 0.14472541 5
-4.1797476 3.5184278 0.12883994 79
-2.8387711 2.8806977 0.070594981 50
-1.759005 2.1460257 0.033170894 20
-1.6819247 1.1694034 -0.95458102 21
-2.2301064 1.545927 -0.71046501 18
-2.6967766 1.8904084 -0.45757791 25
-2.7416971 1.9161936 -0.31764594 38
-4.2092195 2.9659784 -0.33322936 67
-4.0329223 3.4493132 -0.37440184 32
-2.690088 2.7595246 -0.2944071 44
-1.7801468 2.2006533 -0.23195447 14
-4.2182312 2.929564 -0.20923541 40
-4.1659317 3.5279701 -0.25429261 81
-2.8328006 2.8796613 -0.21169895 46
-1.7827326 2.1788492 -0.16395204 11
-4.2189941 2.9170144 -0.089530848 48
-4.0094581 3.3714962 -0.12189885 4
-2.8334918 2.870326 -0.11738031 49
-1.7808464 2.1649544 -0.097893089 12
-1.8085134 2.2198286 -0.51936495 85
-1.7776405 2.1983395 -0.31831336 85
-2.3313935 2.8821156 0.14870779 56
-4.2163677 2.9853549 0.30086944 50
-2.375066 2.8924818 0.3043609 49
-4.2192364 3.0240195 0.63737667 54
-4.0384922 4.9393477 1.1613141 56
-4.2072091 3.0421555 1.3911524 57
-4.2216253 2.9582105 0.029960416 58
-4.1688876 3.556793 0 53
-2.8036017 2.866945 -0.023305774 48
-1.7728463 2.1799316 -0.031833619 12
-4.0858388 2.8609352 0.14516176 5
-4.1750665 3.5394611 0.12907569 71
-2.8217053 2.8834434 0.070420459 49
-1.7641267 2.1676636 0.033409964 62
-1.6778325 1.1752673 -0.95458102 20
-2.2127995 1.5453936 -0.70666575 32
-2.6942067 1.9026672 -0.45826599 31
-2.7390616 1.9286178 -0.31811863 39
-4.2069783 2.9864297 -0.33387515 76
-4.0284152 3.4698799 -0.37510562 31
-2.6735039 2.761734 -0.29364535 44
-1.7724543 2.2068536 -0.23195447 12
-4.2161665 2.9499986 -0.20964248 48
-4.1611919 3.5489724 -0.25475791 82
-2.812264 2.8788168 -0.2109139 46
-1.7751161 2.1850588 -0.16395204 13
-4.2128882 2.934581 -0.089618109 39
-4.0129232 3.3983929 -0.12236411 3
-2.8164577 2.8730612 -0.11708941 50
-1.7732784 2.1711576 -0.097893089 13
-1.8007538 2.2261281 -0.51936495 85
-1.7668453 2.2006567 -0.31775394 92
-2.315062 2.8824456 0.14830697 59
-4.2140489 3.0058517 0.30145082 63
-2.3555076 2.8891671 0.30314505 48
-4.216702 3.0445392 0.63859534 59
-4.0367279 4.9725103 1.165791 68
-4.2043719 3.06251 1.3937405 72
-4.2194428 2.9786956 0.030018535 47
-4.1678238 3.581099 0 56
-83.59832 86.086205 -0.69742966 -1
-1.7652261 2.1861069 -0.031833619 19
-4.0839953 2.8809419 0.14545268 6
-4.1740904 3.5637503 0.12942933 71
-2.8011708 2.8825197 0.070158675 49
-1.7596917 2.1776972 0.033469729 107
-1.6700169 1.1785039 -0.95246911 19
-2.2232153 1.5642416 -0.71173143 23
-2.6956193 1.9178021 -0.45964217 24
-2.7363727 1.9410472 -0.31859133 38
-4.2046452 3.0069015 -0.33452094 67
-4.0200462 3.4871886 -0.3754575 30
-2.6638472 2.7710495 -0.29364535 42
-1.7647401 2.2130272 -0.23195447 12
-4.2140098 2.9704545 -0.21004957 53
-4.1563559 3.5699847 -0.25522321 46
-2.7917678 2.8778644 -0.21012886 47
-1.7643442 2.1873567 -0.16366135 23
-4.2067113 2.9521408 -0.08970537 45
-4.0086427 3.4188673 -0.12259674 3
-2.795953 2.8721313 -0.11665305 49
-1.7656889 2.1773343 -0.097893089 31
-1.7929722 2.2324002 -0.51936495 93
-1.7591529 2.2068107 -0.31775394 93
-2.2987566 2.8826971 0.14790612 60
-4.211638 3.0263689 0.3020322 61
-2.3360016 2.8857512 0.30192924 49
-4.2180891 3.067997 0.64042342 58
-4.0347815 5.0057201 1.1702679 60
-4.2014441 3.0828817 1.3963288 65
-4.2171683 2.9992018 0.030076655 52
-4.1628599 3.602169 0 53
-83.297318 86.377495 -0.69742966 -1
-1.7575845 2.1922553 -0.031833619 12
-4.0861359 2.9038656 0.14588903 6
-4.1692057 3.5848167 0.12966508 76
-2.7806773 2.8814878 0.069896884 49
-1.7583368 2.1916258 0.033589266 62
-1.665893 1.1843262 -0.95246911 20
-2.2059031 1.5636011 -0.70793217 30
-2.6969593 1.9329699 -0.46101835 23
-2.7336304 1.9534811 -0.31906402 34
-4.2062683 3.0303097 -0.33548963 81
-4.0153618 3.5077627 -0.37616125 27
-82.619713 86.547272 -9.1407118 -1
-1.7570044 2.2191739 -0.23195447 13
-4.2076888 2.9880388 -0.2102531 48
-4.1514239 3.5910065 -0.25568852 76
-2.7678487 2.8732078 -0.20908214 47
-1.7566981 2.1935022 -0.16366135 93
-4.2004628 2.9696929 -0.089792632 44
-4.0194359 3.4523809 -0.12329464 4
-83.368889 86.240601 -3.4908643 -1
-1.7612116 2.1873765 -0.098067589 99
-1.7851688 2.2386453 -0.51936495 92
-1.751439 2.2129378 -0.31775394 92
-2.285579 2.8867867 0.14770572 61
-4.2091351 3.0469055 0.30261359 48
-2.3290362 2.8977723 0.30233452 52
-4.2153606 3.0885684 0.64164209 46
-4.0295782 5.0351367 1.1738495 53
-4.2023087 3.1061411 1.400211 49
-4.2188668 3.02264 0.030163832 56
-4.165339 3.6298177 0 55
-82.995293 86.667725 -0.69742966 -1
-1.7530351 2.2022889 -0.031890262 10
-4.0841022 2.9239299 0.14617994 7
-4.1680031 3.6091645 0.13001871 76
-2.7602253 2.8803484 0.069635101 49
-1.753791 2.2016606 0.033649031 11
-1.6617486 1.1901339 -0.95246911 20
-2.2004316 1.5712917 -0.70793217 40
-2.698226 1.9481704 -0.46239454 27
-2.7308345 1.9659195 -0.31953669 36
-4.2037416 3.0508354 -0.33613542 83
-89.872986 79.066589 -8.4451542 -1
-82.317101 86.835144 -9.1407118 -1
-1.752327 2.2292111 -0.23236284 12
-4.205359 3.0085216 -0.21066017 66
-4.1539278 3.6185985 -0.25661916 71
-82.837624 86.593796 -6.2803149 -1
-1.7490307 2.1996207 -0.16366135 38
-4.1697111 2.969836 -0.089356318 40
-4.0073605 3.4663904 -0.12329464 4
-83.067345 86.53109 -3.4908643 -1
-1.7535655 2.193511 -0.098067589 42
-1.7773435 2.244863 -0.51936495 88
-1.7437036 2.219038 -0.31775394 92
-2.2631383 2.8790362 0.14690405 67
-4.2105727 3.0704026 0.30348569 46
-2.3282323 2.9175704 0.30355033 52
-4.2125397 3.109158 0.64286077 48
-4.0272789 5.0684285 1.1783264 53
-4.1991882 3.1265595 1.4027992 49
-4.2163987 3.0432005 0.030221952 82
-4.1639171 3.6542294 0 52
-82.692261 86.956909 -0.69742966 -1
-1.7391368 2.2005496 -0.031776976 10
-4.0860314 2.946939 0.14661629 7
-4.1629143 3.6302621 0.13025446 67
-2.7398152 2.8791013 0.069373317 48
-1.7429936 2.2038476 0.033589266 10
-1.6539088 1.1932756 -0.9503572 23
-2.1910069 1.5761384 -0.70666575 46
-2.6994193 1.9634032 -0.46377069 26
-2.7320144 1.9812844 -0.32048208 35
-4.2011223 3.0713799 -0.3367812 83
-89.596451 79.379822 -8.4451542 -1
-82.013489 87.121956 -9.1407118 -1
-1.744535 2.2353144 -0.23236284 11
-4.2029376 3.0290246 -0.21106724 71
-4.1562896 3.6462517 -0.25754976 72
-82.534851 86.882431 -6.2803149 -1
-1.7413419 2.2057126 -0.16366135 15
-4.13901 2.9698007 -0.088920012 32
-90.458168 78.800552 -2.7915766 -1
-82.764793 86.820518 -3.4908643 -1
-1.745898 2.1996188 -0.098067589 12
-1.7694967 2.2510533 -0.51936495 90
-1.7359471 2.2251112 -0.31775394 86
-2.262296 2.8987341 0.1475053 43
-4.2078753 3.0909917 0.30406708 48
-2.3304131 2.9413042 0.30517143 48
-4.2096262 3.1297655 0.64407951 48
-4.0247965 5.1017661 1.1828033 51
-4.1959763 3.1469939 1.4053874 46
-4.2178822 3.0667207 0.03030913 77
-4.1661224 3.6819866 0 49
-2.0185113 2.1375031 -0.017087026 17
-1.731445 2.2066069 -0.031776976 9
-4.0838065 2.9670594 0.1469072 8
-4.1614842 3.6546667 0.1306081 78
-2.726315 2.8850141 0.069286056 50
-1.7322024 2.2059863 0.033529498 12
-1.6497335 1.1990415 -0.9503572 20
-2.1854918 1.5837768 -0.70666575 39
-2.7005391 1.9786681 -0.46514687 22
-2.7291012 1.9937451 -0.32095477 34
-4.198411 3.0919435 -0.33742702 64
-89.318817 79.692085 -8.4451542 -1
-81.708878 87.4077 -9.1407118 -1
-1.7367216 2.2413902 -0.23236284 12
-4.2004242 3.0495472 -0.21147431 66
-4.1585083 3.6739652 -0.2584804 63
-82.231071 87.169998 -6.2803149 -1
-1.7367111 2.2157061 -0.16395204 11
-4.1043081 2.9666591 -0.088396437 18
-90.182556 79.115829 -2.7915766 -1
-82.461227 87.108894 -3.4908643 -1
-1.7382092 2.2056997 -0.098067589 9
-1.7616283 2.2572165 -0.51936495 92
-1.7281694 2.2311573 -0.31775394 86
-73.440125 94.780869 4.8099556 -1
-4.2050848 3.1115992 0.30464846 50
-2.3324566 2.9650884 0.30679253 40
-4.2105927 3.1533656 0.64590752 47
-4.0221295 5.1351471 1.1872803 49
-4.1926727 3.1674438 1.4079756 46
-4.2192526 3.0902884 0.030396309 84
-89.638367 79.780716 0 -1
-2.0007775 2.1335945 -0.016999848 19
-1.7298771 2.2205255 -0.031890262 10
-4.0855241 2.9901516 0.14734356 8
-4.159935 3.6791053 0.13096173 71
-2.6820185 2.8580582 0.068413436 48
-73.77504 94.631844 1.434417 -1
-1.645538 1.2047929 -0.9503572 23
-2.1760433 1.588544 -0.70539933 38
-2.7055697 1.9969054 -0.46721113 34
-2.7301431 2.00916 -0.32190013 34
-4.1956067 3.1125255 -0.33807281 81
-89.040092 80.00338 -8.4451542 -1
-1.9875965 2.1411557 -0.2231857 26
-1.7319256 2.2513888 -0.23277122 11
-4.1978188 3.0700893 -0.21188138 70
-89.555183 79.678673 -5.583735 -1
-81.926285 87.456512 -6.2803149 -1
-1.7289664 2.221755 -0.16395204 11
-4.085845 2.9750822 -0.088221915 18
-89.905838 79.430138 -2.7915766 -1
-2.0162613 2.1448486 -0.085671626 20
-1.7304994 2.2117538 -0.098067589 9
-1.7537383 2.2633519 -0.51936495 88
-1.7203708 2.2371762 -0.31775394 83
-73.108826 95.036644 4.8099556 -1
-4.2062039 3.1352079 0.30552056 50
-2.3312948 2.9849951 0.30800834 40
-4.2074833 3.1740215 0.6471262 54
-4.019279 5.1685719 1.1917572 53
-4.193121 3.1908338 1.4118578 43
-4.2164865 3.1109345 0.030454429 81
-89.359337 80.093132 0 -1
-1.979688 2.1259291 -0.01688361 20
-73.411674 94.915108 -1.3594428 -1
-4.0871301 3.0132921 0.14777991 9
-4.1582651 3.7035775 0.13131537 81
-2.6515765 2.8454583 0.067889862 49
-73.444267 94.888786 1.434417 -1
-1.6413225 1.2105296 -0.9503572 21
-2.170485 1.5961301 -0.70539933 32
-2.7065313 2.0122473 -0.46858731 30
-2.7271118 2.021642 -0.32237282 34
-4.1927104 3.1331255 -0.33871859 80
-3.2508454 2.9414895 -0.30930379 43
-1.9834894 2.1517465 -0.22356658 29
-1.7240562 2.2574205 -0.23277122 11
-4.1991429 3.0936134 -0.212492 66
-89.276505 79.990791 -5.583735 -1
-2.0065041 2.1569896 -0.15439107 14
-1.7212005 2.2277765 -0.16395204 12
