# .PCD v0.7 - Point Cloud Data file format
VERSION 0.7
FIELDS x y z intensity
SIZE 4 4 4 4
TYPE F F F F
COUNT 1 1 1 1
WIDTH 1572
HEIGHT 1
VIEWPOINT 0 0 0 1 0 0 0
POINTS 1572
DATA ascii
0.1 0.1 0.1 -1
103.30178 60.873688 4.8099556 -1
0.94594282 0.98779958 0.079650454 154
102.59682 61.47591 9.7265797 -1
0.93921757 0.96953589 0.16574231 58
11.29325 6.7347999 2.3933635 13
80.997505 82.91433 31.058285 -1
82.570763 87.072281 0.69742966 -1
90.468903 78.837669 0 -1
97.203354 70.363495 -0.69742966 -1
103.21839 61.189175 -1.3594428 -1
82.506828 87.065704 3.4908643 -1
90.195702 79.09951 2.8290563 -1
97.165627 70.387886 2.0942888 -1
103.19628 61.224754 1.434417 -1
0.1 0.1 0.1 -1
0.79747206 0.84359795 -0.30394226 13
0.1 0.1 0.1 -1
82.398811 86.49704 -11.344498 -1
82.929047 86.387024 -7.7495198 -1
90.614174 78.216057 -8.4451542 -1
97.276451 69.668785 -9.1407118 -1
103.25079 60.359066 -9.8008928 -1
82.442955 87.059158 -4.8848734 -1
90.357162 78.768051 -5.583735 -1
97.108559 70.217415 -6.2803149 -1
103.08238 61.035625 -6.9766822 -1
82.316147 87.290703 -2.0942888 -1
90.15493 79.147301 -2.7915766 -1
97.077858 70.45356 -3.4908643 -1
103.03383 61.37175 -4.1879396 -1
0.1 0.1 0.1 -1
0.1 0.1 0.1 -1
103.51364 60.512726 4.8099556 -1
0.95631492 0.99167764 0.080231845 140
3.8168502 2.2689836 0.36109927 42
0.95299244 0.97690868 0.16757035 82
11.291288 6.6803093 2.3879912 14
81.286438 82.631096 31.058285 -1
82.874199 86.783524 0.69742966 -1
90.743546 78.521393 0 -1
97.44838 70.023766 -0.69742966 -1
103.43136 60.828503 -1.3594428 -1
82.810242 86.777176 3.4908643 -1
90.47126 78.78418 2.8290563 -1
97.410736 70.048286 2.0942888 -1
103.40936 60.864159 1.434417 -1
0.1 0.1 0.1 -1
0.80041188 0.84080911 -0.30394226 11
0.1 0.1 0.1 -1
82.700241 86.208893 -11.344498 -1
83.230087 86.097023 -7.7495198 -1
90.886642 77.899277 -8.4451542 -1
97.519051 69.328796 -9.1407118 -1
103.46085 59.998287 -9.8008928 -1
82.746346 86.770844 -4.8848734 -1
90.631561 78.452164 -5.583735 -1
97.353073 69.878014 -6.2803149 -1
103.29482 60.67543 -6.9766822 -1
82.620346 87.002831 -2.0942888 -1
90.430656 78.832123 -2.7915766 -1
97.323189 70.114265 -3.4908643 -1
103.24743 61.011723 -4.1879396 -1
0.1 0.1 0.1 -1
0.1 0.1 0.1 -1
103.72424 60.151028 4.8099556 -1
0.95629328 0.98475254 0.079941154 158
3.8161619 2.2505834 0.36028871 41
0.95987451 0.97711647 0.16817969 34
11.284841 6.6234245 2.3817236 15
81.574379 82.346848 31.058285 -1
83.176628 86.493713 0.69742966 -1
91.017082 78.204163 0 -1
97.692215 69.683174 -0.69742966 -1
103.64306 60.467087 -1.3594428 -1
83.112648 86.487587 3.4908643 -1
90.74572 78.467903 2.8290563 -1
97.654655 69.707832 2.0942888 -1
103.62119 60.502823 1.434417 -1
0.1 0.1 0.1 -1
0.80334198 0.83801001 -0.30394226 10
0.1 0.1 0.1 -1
83.000664 85.919685 -11.344498 -1
83.530121 85.805969 -7.7495198 -1
91.158012 77.581551 -8.4451542 -1
97.76046 68.987976 -9.1407118 -1
103.66965 59.636776 -9.8008928 -1
83.048729 86.481476 -4.8848734 -1
90.904861 78.135323 -5.583735 -1
97.596397 69.537766 -6.2803149 -1
103.50598 60.314495 -6.9766822 -1
82.923538 86.713905 -2.0942888 -1
90.705284 78.515976 -2.7915766 -1
97.567345 69.774117 -3.4908643 -1
103.45977 60.650951 -4.1879396 -1
0.1 0.1 0.1 -1
0.1 0.1 0.1 -1
103.93358 59.788597 4.8099556 -1
0.93878543 0.95999593 0.07819698 125
3.8325975 2.2422819 0.36109927 47
0.96676958 0.97728801 0.16878904 16
11.282386 6.5691419 2.3763514 14
0.9414053 0.94370836 0.35717028 14
83.478043 86.202843 0.69742966 -1
91.289513 77.885979 0 -1
97.93486 69.341743 -0.69742966 -1
103.85349 60.104939 -1.3594428 -1
83.41404 86.196938 3.4908643 -1
91.019066 78.150658 2.8290563 -1
97.897385 69.366531 2.0942888 -1
103.83175 60.140747 1.434417 -1
0.1 0.1 0.1 -1
0.80626231 0.83520073 -0.30394226 9
0.1 0.1 0.1 -1
83.300072 85.62944 -11.344498 -1
83.829124 85.51387 -7.7495198 -1
91.428268 77.262871 -8.4451542 -1
98.000671 68.646301 -9.1407118 -1
103.8772 59.274536 -9.8008928 -1
83.350105 86.191055 -4.8848734 -1
91.177048 77.817528 -5.583735 -1
97.838539 69.196663 -6.2803149 -1
103.71589 59.952824 -6.9766822 -1
83.225716 86.42392 -2.0942888 -1
90.978806 78.198875 -2.7915766 -1
97.81031 69.433121 -3.4908643 -1
103.67085 60.289436 -4.1879396 -1
0.1 0.1 0.1 -1
0.1 0.1 0.1 -1
104.14164 59.425438 4.8099556 -1
0.97014946 0.98516554 0.080522545 49
3.8404012 2.2288899 0.36109927 48
0.95616531 0.95984375 0.16635166 18
11.27969 6.514957 2.3709791 16
0.94127089 0.93700922 0.35587618 16
83.778435 85.910927 0.69742966 -1
91.560829 77.566841 0 -1
98.176308 68.999466 -0.69742966 -1
104.06267 59.742054 -1.3594428 -1
83.714409 85.905243 3.4908643 -1
91.291313 77.832466 2.8290563 -1
98.138924 69.024384 2.0942888 -1
104.04105 59.777943 1.434417 -1
0.1 0.1 0.1 -1
0.80917275 0.83238125 -0.30394226 10
0.1 0.1 0.1 -1
83.598465 85.338142 -11.344498 -1
84.127113 85.220734 -7.7495198 -1
91.697403 76.94326 -8.4451542 -1
98.2397 68.303802 -9.1407118 -1
104.08347 58.911575 -9.8008928 -1
83.650459 85.89959 -4.8848734 -1
91.448128 77.498787 -5.583735 -1
98.079483 68.854721 -6.2803149 -1
103.92453 59.590424 -6.9766822 -1
83.526886 86.132881 -2.0942888 -1
91.251213 77.880829 -2.7915766 -1
98.052078 69.09127 -3.4908643 -1
103.88067 59.927193 -4.1879396 -1
0.1 0.1 0.1 -1
0.1 0.1 0.1 -1
104.34844 59.061554 4.8099556 -1
84.353714 85.06337 6.9766822 -1
3.8438392 2.2129846 0.36069399 49
0.96302462 0.96000397 0.166961 16
11.272485 6.4584255 2.3647113 15
82.432228 81.488106 31.058285 -1
84.077812 85.617966 0.69742966 -1
91.831024 77.246765 0 -1
98.416565 68.656342 -0.69742966 -1
104.27057 59.378445 -1.3594428 -1
84.013763 85.612503 3.4908643 -1
91.562439 77.513329 2.8290563 -1
98.379265 68.681396 2.0942888 -1
104.24908 59.414406 1.434417 -1
0.1 0.1 0.1 -1
0.81207341 0.82955164 -0.30394226 17
0.1 0.1 0.1 -1
83.895844 85.045807 -11.344498 -1
84.42408 84.926552 -7.7495198 -1
91.965431 76.622704 -8.4451542 -1
98.477524 67.960464 -9.1407118 -1
104.28848 58.547897 -9.8008928 -1
83.949791 85.607071 -4.8848734 -1
91.718094 77.1791 -5.583735 -1
98.319229 68.51194 -6.2803149 -1
104.1319 59.227295 -6.9766822 -1
83.827042 85.84079 -2.0942888 -1
91.522514 77.561829 -2.7915766 -1
98.292656 68.748589 -3.4908643 -1
104.08922 59.564217 -4.1879396 -1
0.1 0.1 0.1 -1
0.1 0.1 0.1 -1
104.55397 58.696949 4.8099556 -1
0.94878685 0.95011252 0.07819698 6
3.8515406 2.1995535 0.36069399 49
84.645531 83.792976 14.624321 -1
11.2693 6.4044547 2.359339 6
82.716171 81.199867 31.058285 -1
3.7477078 3.7898057 0.030977501 16
92.100105 76.925743 0 -1
98.655617 68.312386 -0.69742966 -1
104.4772 59.014111 -1.3594428 -1
3.7308104 3.7753534 0.15447074 13
91.832451 77.193245 2.8290563 -1
98.618408 68.33757 2.0942888 -1
104.45584 59.050148 1.434417 -1
0.1 0.1 0.1 -1
0.82175547 0.83360118 -0.3064751 17
0.1 0.1 0.1 -1
84.1922 84.752441 -11.344498 -1
84.720016 84.63134 -7.7495198 -1
92.23233 76.301224 -8.4451542 -1
98.714149 67.616302 -9.1407118 -1
104.49221 58.183506 -9.8008928 -1
84.248108 85.313507 -4.8848734 -1
91.986938 76.858475 -5.583735 -1
98.557785 68.168327 -6.2803149 -1
104.33801 58.863445 -6.9766822 -1
84.126167 85.547661 -2.0942888 -1
91.792694 77.241882 -2.7915766 -1
98.532036 68.40506 -3.4908643 -1
104.2965 59.200512 -4.1879396 -1
0.1 0.1 0.1 -1
0.1 0.1 0.1 -1
104.75822 58.331631 4.8099556 -1
84.945511 84.472404 6.9766822 -1
3.8548586 2.1836395 0.36028871 47
84.937508 83.497002 14.624321 -1
11.265875 6.350585 2.3539667 7
10.789884 10.518383 4.0375772 5
3.8067787 3.822758 0.031355273 16
92.368073 76.603783 0 -1
98.893471 67.967598 -0.69742966 -1
104.68256 58.649059 -1.3594428 -1
84.609406 85.023895 3.4908643 -1
92.101349 76.872215 2.8290563 -1
98.856354 67.992905 2.0942888 -1
104.66133 58.685169 1.434417 -1
0.1 0.1 0.1 -1
0.83488333 0.84102589 -0.31027439 17
0.1 0.1 0.1 -1
84.487526 84.458038 -11.344498 -1
85.014915 84.335098 -7.7495198 -1
92.498108 75.978806 -8.4451542 -1
98.949577 67.271309 -9.1407118 -1
104.69467 57.818409 -9.8008928 -1
84.545395 85.018906 -4.8848734 -1
92.254662 76.536911 -5.583735 -1
98.795135 67.823883 -6.2803149 -1
104.54285 58.498878 -6.9766822 -1
84.424271 85.253479 -2.0942888 -1
92.06176 76.920998 -2.7915766 -1
98.77021 68.060707 -3.4908643 -1
104.50252 58.83609 -4.1879396 -1
0.1 0.1 0.1 -1
0.1 0.1 0.1 -1
104.9612 57.965599 4.8099556 -1
0.94119006 0.92943639 0.077034205 5
3.8624575 2.1701701 0.36028871 50
85.228447 83.200005 14.624321 -1
11.266505 6.2992182 2.3494897 5
83.281036 80.620422 31.058285 -1
3.798857 3.7882633 0.031180918 24
92.634903 76.280891 0 -1
99.130119 67.621986 -0.69742966 -1
104.88665 58.283291 -1.3594428 -1
84.905678 84.728035 3.4908643 -1
92.369125 76.550255 2.8290563 -1
99.093086 67.647423 2.0942888 -1
104.86554 58.319473 1.434417 -1
0.1 0.1 0.1 -1
0.84807295 0.848369 -0.31407368 18
0.1 0.1 0.1 -1
84.781822 84.162605 -11.344498 -1
85.308784 84.037827 -7.7495198 -1
92.762764 75.655464 -8.4451542 -1
99.183792 66.925499 -9.1407118 -1
104.89586 57.452602 -9.8008928 -1
84.841652 84.723274 -4.8848734 -1
92.521263 76.214417 -5.583735 -1
99.031281 67.478607 -6.2803149 -1
104.74641 58.133602 -6.9766822 -1
84.721352 84.958267 -2.0942888 -1
92.329704 76.599167 -2.7915766 -1
99.007187 67.715515 -3.4908643 -1
104.70725 58.470951 -4.1879396 -1
0.1 0.1 0.1 -1
0.1 0.1 0.1 -1
105.1629 57.598862 4.8099556 -1
85.533157 83.877319 6.9766822 -1
3.8656561 2.1542485 0.35988346 47
85.518349 82.901993 14.624321 -1
11.245405 6.2359962 2.3405359 7
83.561943 80.329224 31.058285 -1
85.26503 84.435707 0.69742966 -1
92.900612 75.957069 0 -1
99.365562 67.275543 -0.69742966 -1
105.08946 57.916813 -1.3594428 -1
85.200912 84.431145 3.4908643 -1
92.635773 76.227364 2.8290563 -1
99.328621 67.301109 2.0942888 -1
105.06847 57.953072 1.434417 -1
0.1 0.1 0.1 -1
0.1 0.1 0.1 -1
0.1 0.1 0.1 -1
85.075089 83.86615 -11.344498 -1
85.601608 83.739532 -7.7495198 -1
93.026283 75.3312 -8.4451542 -1
99.416801 66.57888 -9.1407118 -1
105.09576 57.086098 -9.8008928 -1
85.136871 84.426605 -4.8848734 -1
92.786736 75.890991 -5.583735 -1
99.266228 67.132515 -6.2803149 -1
104.94869 57.767612 -6.9766822 -1
85.017395 84.662018 -2.0942888 -1
92.596519 76.276413 -2.7915766 -1
99.24295 67.369507 -3.4908643 -1
104.91072 58.105099 -4.1879396 -1
0.1 0.1 0.1 -1
0.1 0.1 0.1 -1
105.36331 57.231426 4.8099556 -1
0.98341632 0.95766735 0.079941154 8
3.8731523 2.1407416 0.35988346 46
85.807213 82.602974 14.624321 -1
11.249864 6.187222 2.3369544 23
10.951839 10.45484 4.0569887 88
85.559242 84.137566 0.69742966 -1
93.165184 75.632324 0 -1
99.599792 66.928284 -0.69742966 -1
105.29099 57.549629 -1.3594428 -1
85.495117 84.133224 3.4908643 -1
92.901291 75.903534 2.8290563 -1
99.562943 66.953979 2.0942888 -1
105.27013 57.58596 1.434417 -1
0.1 0.1 0.1 -1
0.1 0.1 0.1 -1
0.1 0.1 0.1 -1
85.367317 83.568672 -11.344498 -1
85.893394 83.440216 -7.7495198 -1
93.288673 75.00602 -8.4451542 -1
99.648598 66.231445 -9.1407118 -1
105.2944 56.718899 -9.8008928 -1
85.431053 84.128906 -4.8848734 -1
93.051079 75.566643 -5.583735 -1
99.499954 66.785599 -6.2803149 -1
105.1497 57.400921 -6.9766822 -1
85.312401 84.364731 -2.0942888 -1
92.862213 75.952728 -2.7915766 -1
99.477509 67.022675 -3.4908643 -1
105.11291 57.738537 -4.1879396 -1
0.1 0.1 0.1 -1
0.1 0.1 0.1 -1
105.56245 56.863289 4.8099556 -1
0.99751782 0.96463847 0.080813237 8
3.8806014 2.1272087 0.35988346 45
7.3575377 7.033473 1.2497702 32
11.236844 6.1290708 2.3297913 31
11.016308 10.443129 4.0673413 88
85.852417 83.838394 0.69742966 -1
93.428619 75.306656 0 -1
99.832809 66.580208 -0.69742966 -1
105.49123 57.181744 -1.3594428 -1
85.788277 83.834274 3.4908643 -1
93.165672 75.578789 2.8290563 -1
99.796043 66.606033 2.0942888 -1
105.4705 57.218147 1.434417 -1
0.1 0.1 0.1 -1
0.1 0.1 0.1 -1
0.1 0.1 0.1 -1
85.658508 83.27018 -11.344498 -1
86.184135 83.139885 -7.7495198 -1
93.549927 74.679924 -8.4451542 -1
99.879181 65.883202 -9.1407118 -1
105.49174 56.351006 -9.8008928 -1
85.724197 83.830185 -4.8848734 -1
93.314293 75.241379 -5.583735 -1
99.732475 66.437874 -6.2803149 -1
105.34943 57.033531 -6.9766822 -1
85.606369 84.066422 -2.0942888 -1
93.12677 75.628113 -2.7915766 -1
99.710861 66.675026 -3.4908643 -1
105.31381 57.371273 -4.1879396 -1
0.1 0.1 0.1 -1
0.1 0.1 0.1 -1
105.76029 56.494461 4.8099556 -1
1.0080795 0.96806538 0.081394628 36
3.8836246 2.1112697 0.35947818 44
7.3784451 7.0043306 1.2491608 22
103.84169 56.170418 21.489235 -1
11.08786 10.437715 4.0802822 88
86.144547 83.5382 0.69742966 -1
93.690918 74.980072 0 -1
100.06461 66.231323 -0.69742966 -1
105.69019 56.813164 -1.3594428 -1
86.080391 83.534309 3.4908643 -1
93.428925 75.25312 2.8290563 -1
100.02794 66.257271 2.0942888 -1
105.66959 56.84964 1.434417 -1
0.1 0.1 0.1 -1
0.1 0.1 0.1 -1
0.1 0.1 0.1 -1
85.948654 82.970665 -11.344498 -1
86.473816 82.838539 -7.7495198 -1
93.810036 74.352921 -8.4451542 -1
100.10855 65.534157 -9.1407118 -1
105.6878 55.982426 -9.8008928 -1
86.016304 83.530441 -4.8848734 -1
93.576363 74.915192 -5.583735 -1
99.963776 66.08934 -6.2803149 -1
105.54787 56.665447 -6.9766822 -1
85.899292 83.76709 -2.0942888 -1
93.390198 75.302582 -2.7915766 -1
99.942993 66.326561 -3.4908643 -1
105.51343 57.003307 -4.1879396 -1
0.1 0.1 0.1 -1
0.1 0.1 0.1 -1
105.95686 56.124947 4.8099556 -1
86.69593 82.674911 6.9766822 -1
3.8909707 2.0977006 0.35947818 45
7.3811827 6.9581075 1.2455047 18
104.03713 55.807602 21.489235 -1
11.15598 10.42863 4.091929 85
86.435623 83.236992 0.69742966 -1
93.95208 74.652573 0 -1
100.29519 65.881622 -0.69742966 -1
105.88786 56.44389 -1.3594428 -1
86.371452 83.233322 3.4908643 -1
93.69104 74.926537 2.8290563 -1
100.25861 65.907707 2.0942888 -1
105.86739 56.480434 1.434417 -1
0.1 0.1 0.1 -1
0.1 0.1 0.1 -1
0.1 0.1 0.1 -1
86.237755 82.670143 -11.344498 -1
86.762451 82.536186 -7.7495198 -1
94.069008 74.025009 -8.4451542 -1
100.3367 65.184311 -9.1407118 -1
105.88257 55.613167 -9.8008928 -1
86.30735 83.229675 -4.8848734 -1
93.837296 74.588089 -5.583735 -1
100.19386 65.739998 -6.2803149 -1
105.74503 56.296669 -6.9766822 -1
86.19117 83.466736 -2.0942888 -1
93.652481 74.976128 -2.7915766 -1
100.1739 65.977287 -3.4908643 -1
105.71177 56.634651 -4.1879396 -1
0.1 0.1 0.1 -1
0.1 0.1 0.1 -1
106.15212 55.754745 4.8099556 -1
86.983994 82.37178 6.9766822 -1
3.8938744 2.0817561 0.35907289 43
7.39818 6.9255166 1.2442859 23
104.2313 55.444103 21.489235 -1
11.224172 10.419197 4.1035762 84
86.725647 82.934769 0.69742966 -1
94.212097 74.324165 0 -1
100.52455 65.531128 -0.69742966 -1
106.08424 56.073929 -1.3594428 -1
86.661469 82.93132 3.4908643 -1
93.952011 74.599037 2.8290563 -1
100.48806 65.557335 2.0942888 -1
106.06389 56.110546 1.434417 -1
0.1 0.1 0.1 -1
0.1 0.1 0.1 -1
0.1 0.1 0.1 -1
86.525803 82.368614 -11.344498 -1
87.050026 82.232826 -7.7495198 -1
94.326828 73.696198 -8.4451542 -1
100.56362 64.833679 -9.1407118 -1
106.07605 55.243229 -9.8008928 -1
86.597351 82.927902 -4.8848734 -1
94.097084 74.260086 -5.583735 -1
100.42273 65.389854 -6.2803149 -1
105.9409 55.927208 -6.9766822 -1
86.482002 83.165367 -2.0942888 -1
93.913628 74.648766 -2.7915766 -1
100.40359 65.627213 -3.4908643 -1
105.90881 56.265305 -4.1879396 -1
0.1 0.1 0.1 -1
0.1 0.1 0.1 -1
106.34609 55.383865 4.8099556 -1
87.270996 82.06765 6.9766822 -1
3.9011173 2.0681512 0.35907289 43
7.41504 6.8928924 1.2430673 21
104.4242 55.079929 21.489235 -1
11.295983 10.412688 4.1165171 79
87.014618 82.631531 0.69742966 -1
94.470963 73.99485 0 -1
100.75269 65.179832 -0.69742966 -1
106.27933 55.703281 -1.3594428 -1
86.950424 82.628311 3.4908643 -1
94.211838 74.270622 2.8290563 -1
100.71629 65.206169 2.0942888 -1
106.25911 55.739971 1.434417 -1
0.1 0.1 0.1 -1
0.1 0.1 0.1 -1
0.1 0.1 0.1 -1
86.81279 82.066078 -11.344498 -1
87.336548 81.928459 -7.7495198 -1
94.583504 73.366486 -8.4451542 -1
100.78932 64.482246 -9.1407118 -1
106.26823 54.87262 -9.8008928 -1
86.886299 82.625114 -4.8848734 -1
94.355728 73.931168 -5.583735 -1
100.65037 65.038918 -6.2803149 -1
106.13548 55.557064 -6.9766822 -1
86.771774 82.862976 -2.0942888 -1
94.17363 74.320488 -2.7915766 -1
100.63206 65.276344 -3.4908643 -1
106.10457 55.895271 -4.1879396 -1
0.1 0.1 0.1 -1
0.1 0.1 0.1 -1
106.53877 55.01231 4.8099556 -1
87.556931 81.76252 6.9766822 -1
3.9083128 2.0545213 0.35907289 44
7.4281158 6.8568687 1.2412393 25
104.61583 54.715088 21.489235 -1
11.364324 10.402543 4.1281638 79
87.302521 82.327293 0.69742966 -1
94.728676 73.664635 0 -1
100.97959 64.827744 -0.69742966 -1
106.47312 55.331959 -1.3594428 -1
87.238319 82.324295 3.4908643 -1
94.47052 73.941315 2.8290563 -1
100.94328 64.854202 2.0942888 -1
106.45303 55.368717 1.434417 -1
0.1 0.1 0.1 -1
0.1 0.1 0.1 -1
0.1 0.1 0.1 -1
87.098724 81.76255 -11.344498 -1
87.621994 81.6231 -7.7495198 -1
94.83902 73.035881 -8.4451542 -1
101.01379 64.130035 -9.1407118 -1
106.45913 54.501339 -9.8008928 -1
87.174187 82.32132 -4.8848734 -1
94.61322 73.601357 -5.583735 -1
100.87679 64.68718 -6.2803149 -1
106.32876 55.186245 -6.9766822 -1
87.060493 82.559586 -2.0942888 -1
94.43248 73.99131 -2.7915766 -1
100.85931 64.924675 -3.4908643 -1
106.29903 55.524555 -4.1879396 -1
0.1 0.1 0.1 -1
0.1 0.1 0.1 -1
106.73015 54.640087 4.8099556 -1
87.841805 81.45639 6.9766822 -1
3.9154606 2.0408661 0.35907289 42
7.4410305 6.8208375 1.2394112 33
10.113797 5.2447338 2.0737112 85
11.436305 10.395296 4.1411047 77
87.589371 82.022049 0.69742966 -1
94.985237 73.333519 0 -1
101.20526 64.474861 -0.69742966 -1
106.66562 54.959961 -1.3594428 -1
87.525154 82.019279 3.4908643 -1
94.728043 73.611099 2.8290563 -1
101.16905 64.50145 2.0942888 -1
106.64565 54.996792 1.434417 -1
0.1 0.1 0.1 -1
0.1 0.1 0.1 -1
0.1 0.1 0.1 -1
87.383598 81.458015 -11.344498 -1
87.90638 81.31675 -7.7495198 -1
95.093384 72.704384 -8.4451542 -1
101.23703 63.777039 -9.1407118 -1
106.64873 54.129395 -9.8008928 -1
87.461006 82.016525 -4.8848734 -1
94.86956 73.270645 -5.583735 -1
101.10197 64.334663 -6.2803149 -1
106.52074 54.814751 -6.9766822 -1
87.348145 82.25518 -2.0942888 -1
94.690186 73.661224 -2.7915766 -1
101.08533 64.572212 -3.4908643 -1
106.4922 55.153164 -4.1879396 -1
0.1 0.1 0.1 -1
0.1 0.1 0.1 -1
106.92023 54.267197 4.8099556 -1
88.125603 81.149269 6.9766822 -1
3.9225607 2.0271862 0.35907289 41
88.08017 80.174889 14.624321 -1
10.114544 5.2004013 2.0701296 92
11.504788 10.384437 4.1527514 87
87.875145 81.715805 0.69742966 -1
95.240639 73.001511 0 -1
101.42971 64.121201 -0.69742966 -1
106.85682 54.587296 -1.3594428 -1
87.810921 81.713257 3.4908643 -1
94.984421 73.279984 2.8290563 -1
101.39359 64.147911 2.0942888 -1
106.83698 54.624195 1.434417 -1
0.1 0.1 0.1 -1
0.1 0.1 0.1 -1
0.1 0.1 0.1 -1
87.667412 81.152496 -11.344498 -1
88.18969 81.009399 -7.7495198 -1
95.346596 72.372002 -8.4451542 -1
101.45904 63.423267 -9.1407118 -1
106.83703 53.75679 -9.8008928 -1
87.746765 81.710732 -4.8848734 -1
95.124748 72.939041 -5.583735 -1
101.32593 63.981358 -6.2803149 -1
106.71143 54.442589 -6.9766822 -1
87.634743 81.949783 -2.0942888 -1
94.946732 73.330246 -2.7915766 -1
101.31011 64.218964 -3.4908643 -1
106.68407 54.781101 -4.1879396 -1
0.1 0.1 0.1 -1
0.1 0.1 0.1 -1
107.10901 53.893642 4.8099556 -1
5.179255 4.7359443 0.4087173 16
3.9296131 2.0134816 0.35907289 43
88.359497 79.866943 14.624321 -1
10.115105 5.156127 2.0665481 93
11.519388 10.324873 4.1449871 79
88.159851 81.408562 0.69742966 -1
95.494881 72.668617 0 -1
101.65292 63.766754 -0.69742966 -1
107.04671 54.213963 -1.3594428 -1
88.095619 81.406242 3.4908643 -1
95.239639 72.947983 2.8290563 -1
101.61688 63.793591 2.0942888 -1
107.027 54.250931 1.434417 -1
0.1 0.1 0.1 -1
0.1 0.1 0.1 -1
0.1 0.1 0.1 -1
87.95015 80.845985 -11.344498 -1
88.471931 80.701065 -7.7495198 -1
95.59864 72.038742 -8.4451542 -1
101.67981 63.068726 -9.1407118 -1
107.02402 53.383533 -9.8008928 -1
88.031456 81.403938 -4.8848734 -1
95.378777 72.606552 -5.583735 -1
101.54865 63.627277 -6.2803149 -1
106.90083 54.069767 -6.9766822 -1
87.920265 81.643379 -2.0942888 -1
95.202126 72.998375 -2.7915766 -1
101.53366 63.864937 -3.4908643 -1
106.87465 54.408371 -4.1879396 -1
0.1 0.1 0.1 -1
0.1 0.1 0.1 -1
107.29648 53.519436 4.8099556 -1
5.2105365 4.7312584 0.4098801 17
3.9366174 1.9997524 0.35907289 44
88.637741 79.558029 14.624321 -1
10.106698 5.1074748 2.0611758 92
11.508458 10.242858 4.1281638 73
88.443481 81.100334 0.69742966 -1
95.747955 72.334831 0 -1
101.87489 63.41153 -0.69742966 -1
107.2353 53.83997 -1.3594428 -1
3.8076723 3.4939823 0.15039806 11
95.49369 72.615089 2.8290563 -1
101.83895 63.438496 2.0942888 -1
107.21572 53.877007 1.434417 -1
0.1 0.1 0.1 -1
0.1 0.1 0.1 -1
0.1 0.1 0.1 -1
88.231819 80.53849 -11.344498 -1
88.75309 80.391754 -7.7495198 -1
95.849518 71.704597 -8.4451542 -1
101.89934 62.713409 -9.1407118 -1
107.20971 53.009624 -9.8008928 -1
88.315071 81.096153 -4.8848734 -1
95.631638 72.273178 -5.583735 -1
101.77013 63.272419 -6.2803149 -1
107.08891 53.696281 -6.9766822 -1
88.20472 81.335983 -2.0942888 -1
95.456352 72.665611 -2.7915766 -1
101.75597 63.510128 -3.4908643 -1
107.06392 54.034977 -4.1879396 -1
0.1 0.1 0.1 -1
0.1 0.1 0.1 -1
107.48264 53.144573 4.8099556 -1
5.2492623 4.7330971 0.41162425 15
3.943574 1.9859989 0.35907289 45
88.914909 79.248138 14.624321 -1
10.102475 5.0611482 2.0566988 92
11.497098 10.161046 4.1113405 75
88.726036 80.791115 0.69742966 -1
95.99987 72.000168 0 -1
102.09561 63.055534 -0.69742966 -1
107.42258 53.465321 -1.3594428 -1
3.8161511 3.4773035 0.15025261 8
95.746582 72.281311 2.8290563 -1
102.05977 63.082623 2.0942888 -1
107.40313 53.502426 1.434417 -1
0.1 0.1 0.1 -1
0.1 0.1 0.1 -1
0.1 0.1 0.1 -1
88.512413 80.230011 -11.344498 -1
89.033173 80.081451 -7.7495198 -1
96.099228 71.369583 -8.4451542 -1
102.11763 62.357334 -9.1407118 -1
107.3941 52.635071 -9.8008928 -1
88.59761 80.787384 -4.8848734 -1
95.883331 71.938919 -5.583735 -1
101.99037 62.916786 -6.2803149 -1
107.2757 53.322147 -6.9766822 -1
88.488098 81.027596 -2.0942888 -1
95.709427 72.331963 -2.7915766 -1
101.97704 63.154549 -3.4908643 -1
107.25188 53.660923 -4.1879396 -1
0.1 0.1 0.1 -1
0.1 0.1 0.1 -1
107.64907 52.806644 4.8099556 -1
5.2789764 4.7299066 0.41278705 16
3.9497936 1.9736 0.35907289 43
5.6247268 4.9815907 0.92255092 41
10.0963 5.0184374 2.052222 92
11.489045 10.08982 4.0971055 78
88.979408 80.511978 0.69742966 -1
96.225594 71.698227 0 -1
102.2932 62.734478 -0.69742966 -1
107.59002 53.127579 -1.3594428 -1
3.8011229 3.4418154 0.14923444 5
95.97319 71.980164 2.8290563 -1
102.25745 62.761684 2.0942888 -1
107.57069 53.164745 1.434417 -1
0.1 0.1 0.1 -1
0.1 0.1 0.1 -1
0.1 0.1 0.1 -1
88.76403 79.951546 -11.344498 -1
89.284317 79.801353 -7.7495198 -1
96.322968 71.067329 -8.4451542 -1
102.31303 62.036213 -9.1407118 -1
107.55892 52.297421 -9.8008928 -1
88.850975 80.508644 -4.8848734 -1
96.108864 71.637337 -5.583735 -1
102.18752 62.596066 -6.2803149 -1
107.44268 52.984867 -6.9766822 -1
88.74221 80.749199 -2.0942888 -1
95.936188 72.03093 -2.7915766 -1
102.17494 62.833866 -3.4908643 -1
107.41994 53.323719 -4.1879396 -1
0.1 0.1 0.1 -1
0.1 0.1 0.1 -1
107.83275 52.430557 4.8099556 -1
5.2991838 4.7147684 0.41307774 13
3.9566586 1.9598006 0.35907289 44
5.6607146 4.9783134 0.92559767 20
10.091693 4.9722934 2.047745 92
11.480515 10.011563 4.0815763 78
89.259911 80.20089 0.69742966 -1
96.475281 71.3619 0 -1
102.51156 62.377029 -0.69742966 -1
107.77481 52.751694 -1.3594428 -1
3.8019645 3.4185011 0.14879809 5
96.223862 71.644714 2.8290563 -1
102.4759 62.404354 2.0942888 -1
107.75561 52.788929 1.434417 -1
0.1 0.1 0.1 -1
0.1 0.1 0.1 -1
0.1 0.1 0.1 -1
89.042572 79.641212 -11.344498 -1
89.562332 79.489204 -7.7495198 -1
96.57045 70.730667 -8.4451542 -1
102.52895 61.678696 -9.1407118 -1
107.74082 51.921654 -9.8008928 -1
89.131462 80.198006 -4.8848734 -1
96.358337 71.301422 -5.583735 -1
102.4054 62.238983 -6.2803149 -1
107.62698 52.609501 -6.9766822 -1
89.023537 80.438942 -2.0942888 -1
96.187042 71.69561 -2.7915766 -1
102.39365 62.476826 -3.4908643 -1
107.60542 52.948429 -4.1879396 -1
0.1 0.1 0.1 -1
0.1 0.1 0.1 -1
108.01511 52.053833 4.8099556 -1
5.3268313 4.7061567 0.41394982 12
3.9634757 1.9459773 0.35907289 44
89.712563 78.344017 14.624321 -1
10.086886 4.9262428 2.0432682 92
11.478882 9.9398127 4.0686355 78
89.539314 79.888824 0.69742966 -1
96.723793 71.024704 0 -1
102.72868 62.018814 -0.69742966 -1
107.9583 52.375168 -1.3594428 -1
3.8213303 3.4118662 0.14908899 5
96.473366 71.308395 2.8290563 -1
102.69311 62.046268 2.0942888 -1
107.93922 52.412468 1.434417 -1
0.1 0.1 0.1 -1
0.1 0.1 0.1 -1
0.1 0.1 0.1 -1
89.32003 79.32991 -11.344498 -1
89.839256 79.176094 -7.7495198 -1
96.816757 70.393143 -8.4451542 -1
102.74362 61.320427 -9.1407118 -1
107.9214 51.54525 -9.8008928 -1
89.410858 79.886391 -4.8848734 -1
96.606644 70.96463 -5.583735 -1
102.62203 61.881142 -6.2803149 -1
107.80997 52.23349 -6.9766822 -1
89.30378 80.127701 -2.0942888 -1
96.436722 71.359421 -2.7915766 -1
102.61111 62.119026 -3.4908643 -1
107.78958 52.572491 -4.1879396 -1
0.1 0.1 0.1 -1
0.1 0.1 0.1 -1
108.19615 51.676472 4.8099556 -1
5.3544836 4.6974096 0.41482189 11
3.9702442 1.9321305 0.35907289 44
89.985489 78.03038 14.624321 -1
10.081882 4.8802867 2.0387912 93
11.462239 9.8556013 4.050518 75
89.817635 79.57579 0.69742966 -1
96.971123 70.686638 0 -1
102.94453 61.659847 -0.69742966 -1
108.14046 51.998005 -1.3594428 -1
89.753372 79.574783 3.4908643 -1
96.721687 70.971199 2.8290563 -1
102.90907 61.687424 2.0942888 -1
108.12152 52.035374 1.434417 -1
0.1 0.1 0.1 -1
0.1 0.1 0.1 -1
0.1 0.1 0.1 -1
89.596397 79.017647 -11.344498 -1
90.115082 78.862015 -7.7495198 -1
97.06189 70.054756 -8.4451542 -1
102.95705 60.961414 -9.1407118 -1
108.10068 51.168221 -9.8008928 -1
89.689171 79.573807 -4.8848734 -1
96.853767 70.626976 -5.583735 -1
102.83742 61.522549 -6.2803149 -1
107.99164 51.856846 -6.9766822 -1
89.582939 79.815483 -2.0942888 -1
96.685219 71.022354 -2.7915766 -1
102.82732 61.760468 -3.4908643 -1
107.97243 52.195915 -4.1879396 -1
0.1 0.1 0.1 -1
0.1 0.1 0.1 -1
108.37588 51.298481 4.8099556 -1
5.3708477 4.67869 0.41482189 10
3.9724758 1.9160948 0.35866761 44
90.257317 77.715797 14.624321 -1
10.085551 4.8386812 2.0361052 90
11.459842 9.7841711 4.0375772 79
90.094864 79.26178 0.69742966 -1
97.217278 70.347717 0 -1
103.15914 61.300129 -0.69742966 -1
108.32131 51.620209 -1.3594428 -1
90.030586 79.261002 3.4908643 -1
96.968834 70.633148 2.8290563 -1
103.12376 61.327827 2.0942888 -1
108.3025 51.657642 1.434417 -1
0.1 0.1 0.1 -1
0.1 0.1 0.1 -1
0.1 0.1 0.1 -1
89.871674 78.704414 -11.344498 -1
90.389809 78.546974 -7.7495198 -1
97.305832 69.715523 -8.4451542 -1
103.16921 60.601654 -9.1407118 -1
108.27863 50.790565 -9.8008928 -1
89.966393 79.260246 -4.8848734 -1
97.099709 70.288467 -5.583735 -1
103.05154 61.163204 -6.2803149 -1
108.17199 51.479568 -6.9766822 -1
89.861 79.502296 -2.0942888 -1
96.932549 70.684425 -2.7915766 -1
103.04228 61.401157 -3.4908643 -1
108.15398 51.818703 -4.1879396 -1
0.1 0.1 0.1 -1
0.1 0.1 0.1 -1
108.55428 50.919868 4.8099556 -1
90.603729 78.372765 6.9766822 -1
3.9791398 1.9022167 0.35866761 43
90.528046 77.400269 14.624321 -1
10.066839 4.7865477 2.0289419 87
11.471822 9.7253704 4.0298123 75
90.370987 78.946808 0.69742966 -1
97.462242 70.007935 0 -1
103.37249 60.939663 -0.69742966 -1
108.50084 51.241783 -1.3594428 -1
90.306717 78.946259 3.4908643 -1
97.214798 70.294235 2.8290563 -1
103.33721 60.967484 2.0942888 -1
108.48215 51.279278 1.434417 -1
0.1 0.1 0.1 -1
0.1 0.1 0.1 -1
0.1 0.1 0.1 -1
90.145859 78.390221 -11.344498 -1
90.663445 78.230972 -7.7495198 -1
97.548592 69.375435 -8.4451542 -1
103.38013 60.241158 -9.1407118 -1
108.45526 50.412292 -9.8008928 -1
90.242516 78.945724 -4.8848734 -1
97.344467 69.949097 -5.583735 -1
103.26441 60.803112 -6.2803149 -1
108.35103 51.101665 -6.9766822 -1
90.137962 79.188141 -2.0942888 -1
97.178688 70.345642 -2.7915766 -1
103.25598 61.041096 -3.4908643 -1
108.3342 51.440861 -4.1879396 -1
0.1 0.1 0.1 -1
0.1 0.1 0.1 -1
108.73136 50.540634 4.8099556 -1
90.876747 78.056023 6.9766822 -1
3.9857557 1.8883152 0.35866761 43
7.6383543 6.4846745 1.230271 18
10.065686 4.7429914 2.0253603 92
11.531563 9.7070389 4.0388713 71
90.646011 78.630875 0.69742966 -1
97.706024 69.667305 0 -1
103.58458 60.578453 -0.69742966 -1
108.67905 50.862732 -1.3594428 -1
90.581734 78.630547 3.4908643 -1
97.459579 69.95446 2.8290563 -1
103.5494 60.6064 2.0942888 -1
108.66049 50.900295 1.434417 -1
0.1 0.1 0.1 -1
0.1 0.1 0.1 -1
0.1 0.1 0.1 -1
90.418938 78.075081 -11.344498 -1
90.935966 77.914024 -7.7495198 -1
97.790161 69.034508 -8.4451542 -1
103.58978 59.879925 -9.1407118 -1
108.63057 50.033409 -9.8008928 -1
90.517532 78.630234 -4.8848734 -1
97.588043 69.608879 -5.583735 -1
103.47603 60.442284 -6.2803149 -1
108.52875 50.723137 -6.9766822 -1
90.413834 78.873016 -2.0942888 -1
97.423653 70.005997 -2.7915766 -1
103.46843 60.680294 -3.4908643 -1
108.5131 51.062389 -4.1879396 -1
0.1 0.1 0.1 -1
0.1 0.1 0.1 -1
108.90712 50.160782 4.8099556 -1
91.148659 77.738327 6.9766822 -1
3.9923229 1.8743908 0.35866761 43
7.6533546 6.4515748 1.2290523 17
10.082181 4.7078271 2.0253603 76
11.598728 9.694603 4.050518 73
90.91993 78.31398 0.69742966 -1
97.948608 69.325821 0 -1
103.7954 60.216507 -0.69742966 -1
108.85593 50.483059 -1.3594428 -1
90.855659 78.313881 3.4908643 -1
97.703171 69.613838 2.8290563 -1
103.76032 60.244576 2.0942888 -1
108.8375 50.520687 1.434417 -1
0.1 0.1 0.1 -1
0.1 0.1 0.1 -1
0.1 0.1 0.1 -1
90.690918 77.75898 -11.344498 -1
91.207382 77.596123 -7.7495198 -1
98.03054 68.692734 -8.4451542 -1
103.79816 59.517967 -9.1407118 -1
108.80456 49.653912 -9.8008928 -1
90.791451 78.313789 -4.8848734 -1
97.830429 69.267807 -5.583735 -1
103.68638 60.080715 -6.2803149 -1
108.70515 50.34399 -6.9766822 -1
90.688599 78.556931 -2.0942888 -1
97.667427 69.665497 -2.7915766 -1
103.67961 60.318752 -3.4908643 -1
108.69068 50.683296 -4.1879396 -1
0.1 0.1 0.1 -1
0.1 0.1 0.1 -1
109.08155 49.780319 4.8099556 -1
91.419464 77.419685 6.9766822 -1
3.9988413 1.8604436 0.35866761 40
91.333603 76.448036 14.624321 -1
107.14645 49.57671 21.489235 -1
11.621348 9.644803 4.0466356 68
91.192749 77.996132 0.69742966 -1
98.19001 68.983498 0 -1
104.00497 59.853828 -0.69742966 -1
109.03148 50.102776 -1.3594428 -1
91.128471 77.996254 3.4908643 -1
97.945572 69.272369 2.8290563 -1
103.96999 59.882019 2.0942888 -1
109.01319 50.140465 1.434417 -1
0.1 0.1 0.1 -1
0.1 0.1 0.1 -1
0.1 0.1 0.1 -1
90.9618 77.44194 -11.344498 -1
91.477692 77.277275 -7.7495198 -1
98.26973 68.350128 -8.4451542 -1
104.00529 59.155281 -9.1407118 -1
108.97722 49.273811 -9.8008928 -1
91.06427 77.996391 -4.8848734 -1
98.071625 68.925888 -5.583735 -1
103.89547 59.718418 -6.2803149 -1
108.88022 49.964233 -6.9766822 -1
90.962265 78.239891 -2.0942888 -1
97.910004 69.32415 -2.7915766 -1
103.88953 59.956474 -3.4908643 -1
108.86694 50.303589 -4.1879396 -1
0.1 0.1 0.1 -1
0.1 0.1 0.1 -1
109.25465 49.39925 4.8099556 -1
91.689156 77.100098 6.9766822 -1
4.005311 1.8464737 0.35866761 42
91.599899 76.128754 14.624321 -1
10.222121 4.6865282 2.0468497 64
11.621399 9.5765362 4.0349889 38
91.464447 77.677338 0.69742966 -1
98.430206 68.640327 0 -1
104.21326 59.490417 -0.69742966 -1
109.20571 49.721878 -1.3594428 -1
91.400169 77.677681 3.4908643 -1
98.186783 68.930054 2.8290563 -1
104.17838 59.51873 2.0942888 -1
109.18755 49.759632 1.434417 -1
0.1 0.1 0.1 -1
0.1 0.1 0.1 -1
0.1 0.1 0.1 -1
91.231567 77.123947 -11.344498 -1
91.74688 76.957489 -7.7495198 -1
98.507713 68.006683 -8.4451542 -1
104.21114 58.791874 -9.1407118 -1
109.14855 48.893108 -9.8008928 -1
91.335968 77.678047 -4.8848734 -1
98.311623 68.583138 -5.583735 -1
104.10329 59.355392 -6.2803149 -1
109.05396 49.583866 -6.9766822 -1
91.234818 77.921898 -2.0942888 -1
98.151398 68.981956 -2.7915766 -1
104.09818 59.593468 -3.4908643 -1
109.04187 49.923264 -4.1879396 -1
0.1 0.1 0.1 -1
0.1 0.1 0.1 -1
109.42642 49.017578 4.8099556 -1
91.957726 76.779572 6.9766822 -1
4.0162654 1.8345519 0.35907289 44
91.865082 75.808548 14.624321 -1
10.301121 4.6793003 2.0593851 66
89.70948 73.400215 31.058285 -1
91.735031 77.35759 0.69742966 -1
98.669205 68.296326 0 -1
104.42029 59.126282 -0.69742966 -1
109.3786 49.340378 -1.3594428 -1
91.670761 77.358162 3.4908643 -1
98.426796 68.586899 2.8290563 -1
104.38551 59.154716 2.0942888 -1
109.36058 49.378197 1.434417 -1
0.1 0.1 0.1 -1
0.1 0.1 0.1 -1
0.1 0.1 0.1 -1
91.500221 76.805023 -11.344498 -1
92.014954 76.636765 -7.7495198 -1
98.744507 67.662415 -8.4451542 -1
104.41573 58.42775 -9.1407118 -1
109.31856 48.51181 -9.8008928 -1
91.60656 77.358749 -4.8848734 -1
98.550423 68.239548 -5.583735 -1
104.30984 58.991642 -6.2803149 -1
109.22637 49.202896 -6.9766822 -1
91.506264 77.602951 -2.0942888 -1
98.391594 68.638924 -2.7915766 -1
104.30557 59.229736 -3.4908643 -1
109.21547 49.542332 -4.1879396 -1
0.1 0.1 0.1 -1
0.1 0.1 0.1 -1
109.59686 48.635311 4.8099556 -1
0.99526334 0.8251105 0.075290032 8
4.0226445 1.8205214 0.35907289 47
92.129143 75.487419 14.624321 -1
10.366735 4.6655216 2.0692344 70
89.965149 73.086624 31.058285 -1
92.004501 77.036903 0.69742966 -1
98.907005 67.951485 0 -1
104.62604 58.761429 -0.69742966 -1
109.55017 48.958275 -1.3594428 -1
91.940231 77.037704 3.4908643 -1
98.665611 68.242905 2.8290563 -1
104.59135 58.789982 2.0942888 -1
109.53227 48.996155 1.434417 -1
0.1 0.1 0.1 -1
0.1 0.1 0.1 -1
0.1 0.1 0.1 -1
91.767769 76.485161 -11.344498 -1
92.281906 76.315102 -7.7495198 -1
98.980087 67.317322 -8.4451542 -1
104.61905 58.062916 -9.1407118 -1
109.48723 48.129921 -9.8008928 -1
91.876038 77.038513 -4.8848734 -1
98.788025 67.895126 -5.583735 -1
104.51513 58.627171 -6.2803149 -1
109.39746 48.821323 -6.9766822 -1
91.776588 77.283066 -2.0942888 -1
98.630585 68.295059 -2.7915766 -1
104.51169 58.86528 -3.4908643 -1
109.38773 49.160797 -4.1879396 -1
0.1 0.1 0.1 -1
0.1 0.1 0.1 -1
109.76596 48.252449 4.8099556 -1
0.99428362 0.81845903 0.074999332 8
4.028975 1.8064686 0.35907289 47
92.392082 75.165367 14.624321 -1
10.454844 4.6613569 2.0835605 64
90.219719 72.772141 31.058285 -1
92.27285 76.715279 0.69742966 -1
99.143593 67.60582 0 -1
104.83052 58.395855 -0.69742966 -1
109.7204 48.575573 -1.3594428 -1
92.208588 76.716301 3.4908643 -1
98.903221 67.898079 2.8290563 -1
104.79594 58.424534 2.0942888 -1
109.70264 48.613518 1.434417 -1
0.1 0.1 0.1 -1
0.1 0.1 0.1 -1
0.1 0.1 0.1 -1
92.034187 76.16436 -11.344498 -1
92.547729 75.992516 -7.7495198 -1
99.21447 66.971405 -8.4451542 -1
104.82109 57.697372 -9.1407118 -1
109.65456 47.747448 -9.8008928 -1
92.144386 76.717339 -4.8848734 -1
99.024422 67.549881 -5.583735 -1
104.71914 58.26199 -6.2803149 -1
109.56721 48.439159 -6.9766822 -1
92.045799 76.962234 -2.0942888 -1
98.868378 67.950356 -2.7915766 -1
104.71653 58.500107 -3.4908643 -1
109.55868 48.778664 -4.1879396 -1
0.1 0.1 0.1 -1
0.1 0.1 0.1 -1
109.90028 47.94574 4.8099556 -1
0.97725207 0.7998715 0.073545858 8
4.0340037 1.7952106 0.35907289 44
1.0610603 0.85831016 0.16757035 18
10.530798 4.6600118 2.0960958 63
90.422585 72.51992 31.058285 -1
92.486725 76.457306 0.69742966 -1
99.332001 67.328697 0 -1
104.99318 58.102886 -0.69742966 -1
109.85562 48.26899 -1.3594428 -1
92.422455 76.458504 3.4908643 -1
99.092445 67.621628 2.8290563 -1
104.95868 58.13166 2.0942888 -1
109.83796 48.30698 1.434417 -1
0.1 0.1 0.1 -1
0.1 0.1 0.1 -1
0.1 0.1 0.1 -1
92.246521 75.907059 -11.344498 -1
92.759583 75.73378 -7.7495198 -1
99.4011 66.694084 -8.4451542 -1
104.9818 57.404434 -9.1407118 -1
109.78748 47.441048 -9.8008928 -1
92.358269 76.459717 -4.8848734 -1
99.212669 67.273087 -5.583735 -1
104.88143 57.96933 -6.2803149 -1
109.70205 48.132999 -6.9766822 -1
92.260361 76.704895 -2.0942888 -1
99.057747 67.673996 -2.7915766 -1
104.87949 58.207455 -3.4908643 -1
109.69447 48.47253 -4.1879396 -1
0.1 0.1 0.1 -1
0.1 0.1 0.1 -1
110.06697 47.561821 4.8099556 -1
92.968048 75.553085 6.9766822 -1
4.0402455 1.7811184 0.35907289 47
1.0485728 0.8421706 0.16513295 33
10.61458 4.6528478 2.1095266 63
90.675179 72.203842 31.058285 -1
92.753044 76.134003 0.69742966 -1
99.566414 66.981552 0 -1
105.19536 57.736038 -0.69742966 -1
110.02344 47.885227 -1.3594428 -1
92.688782 76.135429 3.4908643 -1
99.327881 67.275314 2.8290563 -1
105.16096 57.764931 2.0942888 -1
110.00592 47.923279 1.434417 -1
0.1 0.1 0.1 -1
0.1 0.1 0.1 -1
0.1 0.1 0.1 -1
92.510925 75.584595 -11.344498 -1
93.023376 75.409523 -7.7495198 -1
99.633301 66.346703 -8.4451542 -1
105.18154 57.037628 -9.1407118 -1
109.95241 47.057529 -9.8008928 -1
92.624596 76.136864 -4.8848734 -1
99.446892 66.926361 -5.583735 -1
105.08315 57.602875 -6.2803149 -1
109.8694 47.749775 -6.9766822 -1
92.527542 76.382378 -2.0942888 -1
99.293373 67.327812 -2.7915766 -1
105.08202 57.841003 -3.4908643 -1
109.86299 48.089329 -4.1879396 -1
0.1 0.1 0.1 -1
0.1 0.1 0.1 -1
110.23232 47.177326 4.8099556 -1
93.231209 75.228104 6.9766822 -1
4.0464382 1.7670044 0.35907289 45
1.0592663 0.84469348 0.16635166 42
10.693928 4.6431956 2.122062 55
90.926666 71.886887 31.058285 -1
93.018234 75.809769 0.69742966 -1
99.799622 66.633598 0 -1
105.39626 57.368484 -0.69742966 -1
110.18992 47.500881 -1.3594428 -1
92.953979 75.811417 3.4908643 -1
99.562111 66.928192 2.8290563 -1
105.36195 57.397499 2.0942888 -1
110.17253 47.538994 1.434417 -1
0.1 0.1 0.1 -1
0.1 0.1 0.1 -1
0.1 0.1 0.1 -1
92.7742 75.261215 -11.344498 -1
93.286041 75.084351 -7.7495198 -1
99.864288 65.998512 -8.4451542 -1
105.38 56.670128 -9.1407118 -1
110.116 46.673439 -9.8008928 -1
92.889801 75.81308 -4.8848734 -1
99.679901 66.578819 -5.583735 -1
105.28357 57.235714 -6.2803149 -1
110.03541 47.365967 -6.9766822 -1
92.793602 76.058929 -2.0942888 -1
99.527786 66.980797 -2.7915766 -1
105.28329 57.473846 -3.4908643 -1
110.03019 47.705544 -4.1879396 -1
0.1 0.1 0.1 -1
0.1 0.1 0.1 -1
110.39632 46.792259 4.8099556 -1
93.49324 74.902206 6.9766822 -1
4.0525813 1.7528689 0.35907289 45
1.0544267 0.83482969 0.16513295 65
10.782374 4.6369328 2.1363881 62
91.17704 71.569054 31.058285 -1
93.282295 75.484612 0.69742966 -1
100.03161 66.284821 0 -1
105.59586 57.000237 -0.69742966 -1
110.35506 47.115955 -1.3594428 -1
93.218048 75.486488 3.4908643 -1
99.795128 66.580246 2.8290563 -1
105.56167 57.029369 2.0942888 -1
110.3378 47.154133 1.434417 -1
0.1 0.1 0.1 -1
0.1 0.1 0.1 -1
0.1 0.1 0.1 -1
93.036346 74.936913 -11.344498 -1
93.547562 74.75827 -7.7495198 -1
100.09406 65.649521 -8.4451542 -1
105.57717 56.301937 -9.1407118 -1
110.27824 46.288776 -9.8008928 -1
93.15387 75.488373 -4.8848734 -1
99.911697 66.230469 -5.583735 -1
105.48272 56.867855 -6.2803149 -1
110.20007 46.981583 -6.9766822 -1
93.058533 75.734558 -2.0942888 -1
99.760986 66.632973 -2.7915766 -1
105.48327 57.105988 -3.4908643 -1
110.19604 47.321175 -4.1879396 -1
0.1 0.1 0.1 -1
0.1 0.1 0.1 -1
110.55899 46.406616 4.8099556 -1
93.754128 74.575401 6.9766822 -1
4.0586753 1.7387121 0.35907289 42
1.0573343 0.83114398 0.16513295 49
10.866382 4.628181 2.1498189 70
18.738585 14.603354 6.3656545 3
93.545219 75.158539 0.69742966 -1
100.26237 65.935242 0 -1
105.79419 56.63129 -0.69742966 -1
110.51885 46.730457 -1.3594428 -1
93.480972 75.160637 3.4908643 -1
100.02693 66.231491 2.8290563 -1
105.76009 56.660542 2.0942888 -1
110.50172 46.768696 1.434417 -1
0.1 0.1 0.1 -1
0.1 0.1 0.1 -1
0.1 0.1 0.1 -1
93.297356 74.611694 -11.344498 -1
93.807945 74.431267 -7.7495198 -1
100.3226 65.299728 -8.4451542 -1
105.77306 55.933064 -9.1407118 -1
110.43916 45.903553 -9.8008928 -1
93.416809 75.162743 -4.8848734 -1
100.14227 65.881302 -5.583735 -1
105.68059 56.499306 -6.2803149 -1
110.3634 46.596626 -6.9766822 -1
93.322334 75.409256 -2.0942888 -1
99.992966 66.28434 -2.7915766 -1
105.68196 56.737434 -3.4908643 -1
110.36055 46.93623 -4.1879396 -1
0.1 0.1 0.1 -1
0.1 0.1 0.1 -1
110.72031 46.020412 4.8099556 -1
94.01387 74.247681 6.9766822 -1
4.0693078 1.7264805 0.35947818 44
1.0563169 0.82439482 0.16452362 46
10.918731 4.6055164 2.1569819 93
91.674461 70.930779 31.058285 -1
93.806999 74.831551 0.69742966 -1
100.49192 65.584862 0 -1
105.99123 56.261654 -0.69742966 -1
110.6813 46.344391 -1.3594428 -1
93.742767 74.83387 3.4908643 -1
100.25751 65.881927 2.8290563 -1
105.95723 56.291023 2.0942888 -1
110.66431 46.382687 1.434417 -1
0.1 0.1 0.1 -1
0.1 0.1 0.1 -1
0.1 0.1 0.1 -1
93.557236 74.285576 -11.344498 -1
94.067192 74.103363 -7.7495198 -1
100.54993 64.949135 -8.4451542 -1
105.96766 55.563503 -9.1407118 -1
110.59872 45.517769 -9.8008928 -1
93.678604 74.836205 -4.8848734 -1
100.37164 65.531342 -5.583735 -1
105.87716 56.13007 -6.2803149 -1
110.52538 46.211105 -6.9766822 -1
93.584991 75.083046 -2.0942888 -1
100.22373 65.934891 -2.7915766 -1
105.87937 56.368191 -3.4908643 -1
110.52372 46.550713 -4.1879396 -1
0.1 0.1 0.1 -1
0.1 0.1 0.1 -1
110.88027 45.633644 4.8099556 -1
94.272469 73.91906 6.9766822 -1
4.0753093 1.7122655 0.35947818 43
1.059188 0.82070255 0.16452362 43
10.921123 4.561687 2.1542959 90
18.717516 14.378032 6.3242435 4
94.067642 74.503647 0.69742966 -1
100.72024 65.233681 0 -1
106.18697 55.891335 -0.69742966 -1
110.84239 45.95776 -1.3594428 -1
94.00341 74.506187 3.4908643 -1
100.48687 65.531563 2.8290563 -1
106.15308 55.920822 2.0942888 -1
110.82554 45.996113 1.434417 -1
0.1 0.1 0.1 -1
0.1 0.1 0.1 -1
0.1 0.1 0.1 -1
93.815971 73.958549 -11.344498 -1
94.325287 73.774559 -7.7495198 -1
100.77603 64.597755 -8.4451542 -1
106.16096 55.193272 -9.1407118 -1
110.75693 45.131428 -9.8008928 -1
93.939262 74.508743 -4.8848734 -1
100.59977 65.18058 -5.583735 -1
106.07245 55.760147 -6.2803149 -1
110.68601 45.825016 -6.9766822 -1
93.846512 74.755913 -2.0942888 -1
100.45328 65.584648 -2.7915766 -1
106.07549 55.99826 -3.4908643 -1
110.68554 46.164631 -4.1879396 -1
0.1 0.1 0.1 -1
0.1 0.1 0.1 -1
111.03889 45.246323 4.8099556 -1
94.529922 73.589539 6.9766822 -1
4.0812616 1.6980295 0.35947818 42
1.0581129 0.81397438 0.16391426 33
10.918797 4.516017 2.1507144 90
11.474843 8.7509871 3.8667564 41
94.327133 74.174835 0.69742966 -1
100.94733 64.881706 0 -1
106.38142 55.520332 -0.69742966 -1
111.00214 45.570568 -1.3594428 -1
94.262917 74.177597 3.4908643 -1
100.715 65.180397 2.8290563 -1
106.34763 55.549938 2.0942888 -1
110.98542 45.608978 1.434417 -1
0.1 0.1 0.1 -1
0.1 0.1 0.1 -1
0.1 0.1 0.1 -1
94.073563 73.630615 -11.344498 -1
94.58223 73.444855 -7.7495198 -1
101.00091 64.24559 -8.4451542 -1
106.35298 54.822365 -9.1407118 -1
110.91379 44.744541 -9.8008928 -1
94.198776 74.180382 -4.8848734 -1
100.82668 64.829025 -5.583735 -1
106.26644 55.389545 -6.2803149 -1
110.8453 45.43837 -6.9766822 -1
94.10688 74.427872 -2.0942888 -1
100.6816 65.233597 -2.7915766 -1
106.27031 55.627647 -3.4908643 -1
110.84601 45.777985 -4.1879396 -1
0.1 0.1 0.1 -1
0.1 0.1 0.1 -1
111.19615 44.858448 4.8099556 -1
94.786224 73.259117 6.9766822 -1
4.0871639 1.6837729 0.35947818 42
1.0570037 0.80726373 0.16330492 36
10.911733 4.4685545 2.1462374 92
11.497619 8.7050486 3.8641684 58
94.58548 73.845116 0.69742966 -1
101.1732 64.528938 0 -1
106.57458 55.148651 -0.69742966 -1
111.16054 45.182819 -1.3594428 -1
94.521271 73.848106 3.4908643 -1
100.94192 64.828438 2.8290563 -1
106.54089 55.178375 2.0942888 -1
111.14395 45.221291 1.434417 -1
0.1 0.1 0.1 -1
0.1 0.1 0.1 -1
0.1 0.1 0.1 -1
94.330009 73.301788 -11.344498 -1
94.838028 73.11425 -7.7495198 -1
101.22456 63.892639 -8.4451542 -1
106.54369 54.450787 -9.1407118 -1
111.0693 44.357105 -9.8008928 -1
94.457138 73.851112 -4.8848734 -1
101.05236 64.476677 -5.583735 -1
106.45914 55.018269 -6.2803149 -1
111.00323 45.051174 -6.9766822 -1
94.366112 74.098923 -2.0942888 -1
100.90869 64.88176 -2.7915766 -1
106.46384 55.256355 -3.4908643 -1
111.00513 45.390781 -4.1879396 -1
0.1 0.1 0.1 -1
0.1 0.1 0.1 -1
111.35206 44.470028 4.8099556 -1
95.041367 72.927803 6.9766822 -1
4.0930166 1.6694958 0.35947818 39
1.0558606 0.80057079 0.16269557 38
10.909029 4.4230452 2.1426558 89
92.655876 69.64389 31.058285 -1
94.842667 73.514503 0.69742966 -1
101.39783 64.175385 0 -1
106.76643 54.776302 -0.69742966 -1
111.31757 44.794521 -1.3594428 -1
94.778473 73.517715 3.4908643 -1
101.16759 64.475693 2.8290563 -1
106.73285 54.806145 2.0942888 -1
111.30112 44.83305 1.434417 -1
0.1 0.1 0.1 -1
0.1 0.1 0.1 -1
0.1 0.1 0.1 -1
94.585304 72.972069 -11.344498 -1
95.092667 72.782761 -7.7495198 -1
101.44696 63.53891 -8.4451542 -1
106.73312 54.078548 -9.1407118 -1
111.22346 43.969131 -9.8008928 -1
94.714348 73.52095 -4.8848734 -1
101.27681 64.12355 -5.583735 -1
106.65054 54.64632 -6.2803149 -1
111.15981 44.663425 -6.9766822 -1
94.624191 73.769073 -2.0942888 -1
101.13456 64.529129 -2.7915766 -1
106.65607 54.884388 -3.4908643 -1
111.1629 45.003025 -4.1879396 -1
0.1 0.1 0.1 -1
0.1 0.1 0.1 -1
111.50661 44.081066 4.8099556 -1
95.295349 72.595604 6.9766822 -1
4.0988193 1.6551983 0.35947818 41
1.0546837 0.79389572 0.16208623 21
10.906141 4.3776088 2.1390743 90
92.898415 69.320038 31.058285 -1
95.098701 73.182991 0.69742966 -1
101.62123 63.821049 0 -1
106.95699 54.403282 -0.69742966 -1
111.47326 44.405678 -1.3594428 -1
95.034523 73.186432 3.4908643 -1
101.39204 64.122154 2.8290563 -1
106.92351 54.433243 2.0942888 -1
111.45694 44.444263 1.434417 -1
0.1 0.1 0.1 -1
0.1 0.1 0.1 -1
0.1 0.1 0.1 -1
94.839447 72.641464 -11.344498 -1
95.346146 72.450378 -7.7495198 -1
101.66814 63.184406 -8.4451542 -1
106.92123 53.70565 -9.1407118 -1
111.37627 43.58062 -9.8008928 -1
94.970406 73.189888 -4.8848734 -1
101.50003 63.769634 -5.583735 -1
106.84064 54.273708 -6.2803149 -1
111.31504 44.275131 -6.9766822 -1
94.881119 73.438324 -2.0942888 -1
101.35919 64.175705 -2.7915766 -1
106.84701 54.511757 -3.4908643 -1
111.31931 44.614719 -4.1879396 -1
0.1 0.1 0.1 -1
0.1 0.1 0.1 -1
111.6598 43.691566 4.8099556 -1
95.54818 72.26252 6.9766822 -1
4.1045718 1.6408807 0.35947818 41
1.0494977 0.7842679 0.16086753 3
10.898499 4.3304305 2.1345973 90
18.670652 13.830691 6.2258921 4
95.353577 72.850586 0.69742966 -1
101.84338 63.465935 0 -1
107.14623 54.029602 -0.69742966 -1
111.62759 44.016293 -1.3594428 -1
95.289406 72.854256 3.4908643 -1
101.61525 63.767841 2.8290563 -1
107.11286 54.059677 2.0942888 -1
111.6114 44.054935 1.434417 -1
0.1 0.1 0.1 -1
0.1 0.1 0.1 -1
0.1 0.1 0.1 -1
95.092438 72.309967 -11.344498 -1
95.598465 72.117119 -7.7495198 -1
101.88807 62.829136 -8.4451542 -1
107.10805 53.3321 -9.1407118 -1
111.52771 43.191582 -9.8008928 -1
95.225311 72.857933 -4.8848734 -1
101.72201 63.414944 -5.583735 -1
107.02944 53.900436 -6.2803149 -1
111.46891 43.886299 -6.9766822 -1
95.136887 73.106682 -2.0942888 -1
101.58259 63.821507 -2.7915766 -1
107.03664 54.138458 -3.4908643 -1
111.47437 44.225872 -4.1879396 -1
0.1 0.1 0.1 -1
0.1 0.1 0.1 -1
111.81163 43.301537 4.8099556 -1
95.799835 71.928551 6.9766822 -1
4.1102748 1.626543 0.35947818 38
1.0681719 0.79242694 0.16330492 20
10.895237 4.2851591 2.1310158 90
18.629328 13.699625 6.1961279 4
95.607292 72.517296 0.69742966 -1
102.0643 63.110046 0 -1
107.33418 53.655262 -0.69742966 -1
111.78055 43.626373 -1.3594428 -1
95.543137 72.521187 3.4908643 -1
101.83722 63.41275 2.8290563 -1
107.30091 53.685455 2.0942888 -1
111.7645 43.66507 1.434417 -1
0.1 0.1 0.1 -1
0.1 0.1 0.1 -1
0.1 0.1 0.1 -1
95.344261 71.977592 -11.344498 -1
95.849617 71.782982 -7.7495198 -1
102.10677 62.473095 -8.4451542 -1
107.29356 52.957897 -9.1407118 -1
111.6778 42.802013 -9.8008928 -1
95.47905 72.525093 -4.8848734 -1
101.94275 63.059483 -5.583735 -1
107.21693 53.526505 -6.2803149 -1
111.62142 43.496933 -6.9766822 -1
95.391495 72.774147 -2.0942888 -1
101.80475 63.466526 -2.7915766 -1
107.22496 53.7645 -3.4908643 -1
111.62806 43.836483 -4.1879396 -1
0.1 0.1 0.1 -1
0.1 0.1 0.1 -1
111.9621 42.910976 4.8099556 -1
96.050331 71.593712 6.9766822 -1
4.1205678 1.6140032 0.35988346 34
1.0829195 0.79752219 0.16513295 3
10.891792 4.2399635 2.1274343 86
18.634127 13.603189 6.1818929 4
95.859848 72.183128 0.69742966 -1
102.28397 62.753391 0 -1
107.52082 53.28027 -0.69742966 -1
111.93215 43.23592 -1.3594428 -1
95.7957 72.187241 3.4908643 -1
102.05795 63.056885 2.8290563 -1
107.48766 53.310577 2.0942888 -1
111.91624 43.274673 1.434417 -1
0.1 0.1 0.1 -1
0.1 0.1 0.1 -1
0.1 0.1 0.1 -1
95.594933 71.644341 -11.344498 -1
96.099602 71.44796 -7.7495198 -1
102.32422 62.116295 -8.4451542 -1
107.47777 52.58305 -9.1407118 -1
111.82652 42.411922 -9.8008928 -1
95.731628 72.19136 -4.8848734 -1
102.16225 62.703251 -5.583735 -1
107.40312 53.15192 -6.2803149 -1
111.77258 43.107037 -6.9766822 -1
95.644943 72.440727 -2.0942888 -1
102.02567 63.110775 -2.7915766 -1
107.41198 53.389889 -3.4908643 -1
111.7804 43.44656 -4.1879396 -1
0.1 0.1 0.1 -1
0.1 0.1 0.1 -1
112.11121 42.519894 4.8099556 -1
96.29966 71.257996 6.9766822 -1
4.1261764 1.59961 0.35988346 35
