# .PCD v0.7 - Point Cloud Data file format
VERSION 0.7
FIELDS x y z intensity
SIZE 4 4 4 4
TYPE F F F F
COUNT 1 1 1 1
WIDTH 1560
HEIGHT 1
VIEWPOINT 0 0 0 1 0 0 0
POINTS 1560
DATA ascii
17.629618 3.8471014 2.2155848 3
117.92027 -5.7466331 21.489235 -1
113.34863 24.237772 31.058285 -1
116.96001 26.830389 0.69742966 -1
118.98157 15.600846 0 -1
119.9013 4.8157339 -0.69742966 -1
119.83437 -6.1544247 -1.3594428 -1
116.90311 26.860296 3.4908643 -1
118.89891 15.97012 2.8290563 -1
119.88338 4.8569293 2.0942888 -1
119.83563 -6.1125498 1.434417 -1
0.1 0.1 0.1 -1
0.1 0.1 0.1 -1
0.1 0.1 0.1 -1
116.49845 26.446417 -11.344498 -1
116.87921 26.061352 -7.7495198 -1
118.75858 15.002697 -8.4451542 -1
119.57774 4.1966424 -9.1407118 -1
119.40197 -6.8637657 -9.8008928 -1
116.84629 26.890184 -4.8848734 -1
118.84997 15.604692 -5.583735 -1
119.74151 4.7465196 -6.2803149 -1
119.63611 -6.2070513 -6.9766822 -1
116.8688 27.153221 -2.0942888 -1
118.8914 16.032492 -2.7915766 -1
119.84661 4.9602008 -3.4908643 -1
119.78167 -5.9002132 -4.1879396 -1
0.1 0.1 0.1 -1
0.1 0.1 0.1 -1
119.70594 -6.8812394 4.8099556 -1
116.98444 25.80633 6.9766822 -1
119.45514 -5.9886308 9.7265797 -1
116.45504 24.987057 14.624321 -1
117.89949 -6.1582165 21.489235 -1
113.43255 23.841965 31.058285 -1
117.05296 26.421959 0.69742966 -1
119.0353 15.185429 0 -1
119.91738 4.3971705 -0.69742966 -1
119.81215 -6.5726871 -1.3594428 -1
116.99616 26.452065 3.4908643 -1
118.95393 15.554989 2.8290563 -1
119.8996 4.4384284 2.0942888 -1
119.81357 -6.530817 1.434417 -1
0.1 0.1 0.1 -1
0.1 0.1 0.1 -1
0.1 0.1 0.1 -1
116.59006 26.0396 -11.344498 -1
116.96947 25.653208 -7.7495198 -1
118.81022 14.58806 -8.4451542 -1
119.59166 3.7792127 -9.1407118 -1
119.37729 -7.2805147 -9.8008928 -1
116.93945 26.482151 -4.8848734 -1
118.90372 15.189733 -5.583735 -1
119.75735 4.3285146 -6.2803149 -1
119.61372 -6.6246214 -6.9766822 -1
116.96287 26.745108 -2.0942888 -1
118.94665 15.617385 -2.7915766 -1
119.8632 4.5418282 -3.4908643 -1
119.76035 -6.3182936 -4.1879396 -1
0.1 0.1 0.1 -1
0.1 0.1 0.1 -1
119.68119 -7.2990494 4.8099556 -1
117.07381 25.39782 6.9766822 -1
119.4335 -6.4055705 9.7265797 -1
116.54155 24.5804 14.624321 -1
117.87727 -6.569725 21.489235 -1
10.840691 2.2390802 2.9660664 3
117.14447 26.013208 0.69742966 -1
119.08759 14.769825 0 -1
119.932 3.9785542 -0.69742966 -1
119.78848 -6.99087 -1.3594428 -1
117.08778 26.04351 3.4908643 -1
119.00751 15.139668 2.8290563 -1
119.91436 4.0198736 2.0942888 -1
119.79004 -6.9490047 1.434417 -1
0.1 0.1 0.1 -1
0.1 0.1 0.1 -1
0.1 0.1 0.1 -1
116.68024 25.632467 -11.344498 -1
117.05831 25.244753 -7.7495198 -1
118.86041 14.173246 -8.4451542 -1
119.60413 3.3617368 -9.1407118 -1
119.35114 -7.697175 -9.8008928 -1
117.03117 26.073793 -4.8848734 -1
118.95602 14.774589 -5.583735 -1
119.77172 3.9104571 -6.2803149 -1
119.58986 -7.0421104 -6.9766822 -1
117.05552 26.336668 -2.0942888 -1
119.00043 15.202088 -2.7915766 -1
119.87832 4.1233997 -3.4908643 -1
119.73756 -6.7362967 -4.1879396 -1
0.1 0.1 0.1 -1
0.1 0.1 0.1 -1
119.65498 -7.7167702 4.8099556 -1
117.16175 24.989002 6.9766822 -1
119.41042 -6.8224325 9.7265797 -1
116.62664 24.173445 14.624321 -1
117.85362 -6.9811535 21.489235 -1
10.853173 2.2021859 2.9673603 3
117.23456 25.604139 0.69742966 -1
119.13841 14.354042 0 -1
119.94516 3.5598891 -0.69742966 -1
119.76334 -7.408967 -1.3594428 -1
117.17798 25.63464 3.4908643 -1
119.05963 14.724161 2.8290563 -1
119.92767 3.60127 2.0942888 -1
119.76505 -7.3671079 1.434417 -1
0.1 0.1 0.1 -1
0.1 0.1 0.1 -1
0.1 0.1 0.1 -1
116.769 25.225021 -11.344498 -1
117.14571 24.835989 -7.7495198 -1
118.90916 13.75826 -8.4451542 -1
119.61513 2.9442201 -9.1407118 -1
119.32355 -8.1137409 -9.8008928 -1
117.12148 25.665121 -4.8848734 -1
119.00687 14.359265 -5.583735 -1
119.78465 3.492352 -6.2803149 -1
119.56455 -7.4595141 -6.9766822 -1
117.14674 25.927908 -2.0942888 -1
119.05277 14.786607 -2.7915766 -1
119.89198 3.704921 -3.4908643 -1
119.71332 -7.1542177 -4.1879396 -1
0.1 0.1 0.1 -1
0.1 0.1 0.1 -1
119.62732 -8.1343966 4.8099556 -1
117.24827 24.579878 6.9766822 -1
119.38588 -7.2392111 9.7265797 -1
116.71031 23.766195 14.624321 -1
117.82854 -7.3924971 21.489235 -1
10.889214 2.169951 2.9751248 3
117.32322 25.194757 0.69742966 -1
119.18779 13.938084 0 -1
119.95686 3.1411808 -0.69742966 -1
119.73676 -7.8269739 -1.3594428 -1
117.26675 25.225456 3.4908643 -1
119.1103 14.308475 2.8290563 -1
119.93951 3.1826224 2.0942888 -1
119.73861 -7.785121 1.434417 -1
0.1 0.1 0.1 -1
0.1 0.1 0.1 -1
0.1 0.1 0.1 -1
116.85635 24.817266 -11.344498 -1
117.2317 24.426924 -7.7495198 -1
118.95647 13.343105 -8.4451542 -1
119.62468 2.5266674 -9.1407118 -1
119.2945 -8.5302086 -9.8008928 -1
117.21035 25.256134 -4.8848734 -1
119.05626 13.943766 -5.583735 -1
119.7961 3.0742042 -6.2803149 -1
119.53778 -7.8768268 -6.9766822 -1
117.23653 25.518831 -2.0942888 -1
119.10367 14.370945 -2.7915766 -1
119.90418 3.2863975 -3.4908643 -1
119.68761 -7.5720515 -4.1879396 -1
0.1 0.1 0.1 -1
0.1 0.1 0.1 -1
119.5982 -8.5519247 4.8099556 -1
117.33335 24.170456 6.9766822 -1
119.35988 -7.6559014 9.7265797 -1
17.63081 3.5261836 2.2076631 2
117.80201 -7.80375 21.489235 -1
10.844584 2.1217268 2.9608898 3
117.41045 24.78507 0.69742966 -1
119.23572 13.521955 0 -1
2.2693775 0.051499378 -0.013193044 32
119.7087 -8.2448854 -1.3594428 -1
117.35409 24.815964 3.4908643 -1
119.15952 13.892616 2.8290563 -1
119.94988 2.763936 2.0942888 -1
119.7107 -8.2030392 1.434417 -1
0.1 0.1 0.1 -1
0.1 0.1 0.1 -1
0.1 0.1 0.1 -1
116.94226 24.409212 -11.344498 -1
117.31625 24.017559 -7.7495198 -1
119.00232 12.927789 -8.4451542 -1
119.63277 2.1090841 -9.1407118 -1
119.264 -8.9465723 -9.8008928 -1
117.2978 24.84684 -4.8848734 -1
119.10421 13.528097 -5.583735 -1
119.80611 2.656019 -6.2803149 -1
119.50956 -8.2940435 -6.9766822 -1
117.32489 25.109444 -2.0942888 -1
119.15311 13.955108 -2.7915766 -1
119.91492 2.8678336 -3.4908643 -1
119.66045 -7.9897933 -4.1879396 -1
0.1 0.1 0.1 -1
0.1 0.1 0.1 -1
119.56762 -8.969348 4.8099556 -1
117.41701 23.760738 6.9766822 -1
119.33243 -8.0724983 9.7265797 -1
116.87339 22.95083 14.624321 -1
117.77406 -8.2149086 21.489235 -1
10.847181 2.0829482 2.9595957 3
117.49625 24.37508 0.69742966 -1
119.2822 13.105663 0 -1
2.2845404 0.043865416 -0.013280223 32
119.67919 -8.6626968 -1.3594428 -1
117.43999 24.406172 3.4908643 -1
119.20729 13.476587 2.8290563 -1
119.9588 2.3452158 2.0942888 -1
119.68134 -8.6208572 1.434417 -1
0.1 0.1 0.1 -1
0.1 0.1 0.1 -1
0.1 0.1 0.1 -1
117.02676 24.000858 -11.344498 -1
117.39937 23.607903 -7.7495198 -1
119.04672 12.512315 -8.4451542 -1
119.6394 1.6914749 -9.1407118 -1
119.23204 -9.3628263 -9.8008928 -1
117.38381 24.437243 -4.8848734 -1
119.1507 13.112264 -5.583735 -1
119.81465 2.2378016 -6.2803149 -1
119.47988 -8.7111597 -6.9766822 -1
117.41183 24.699751 -2.0942888 -1
119.20109 13.539102 -2.7915766 -1
2.3135378 0.047249824 -0.067344591 19
119.63184 -8.4074373 -4.1879396 -1
0.1 0.1 0.1 -1
0.1 0.1 0.1 -1
119.53558 -9.3866625 4.8099556 -1
117.49923 23.350733 6.9766822 -1
119.30352 -8.4889975 9.7265797 -1
116.95279 22.542727 14.624321 -1
117.74466 -8.625967 21.489235 -1
113.90698 21.461184 31.058285 -1
117.58062 23.964792 0.69742966 -1
119.32722 12.689211 0 -1
2.2996774 0.036126219 -0.013367401 7
119.64822 -9.0804024 -1.3594428 -1
117.52448 23.99608 3.4908643 -1
119.25361 13.060394 2.8290563 -1
119.96626 1.9264673 2.0942888 -1
119.65052 -9.0385704 1.434417 -1
0.1 0.1 0.1 -1
0.1 0.1 0.1 -1
0.1 0.1 0.1 -1
117.10982 23.592213 -11.344498 -1
117.48106 23.197958 -7.7495198 -1
119.08967 12.096687 -8.4451542 -1
119.64458 1.2738451 -9.1407118 -1
119.19863 -9.7789669 -9.8008928 -1
117.4684 24.027348 -4.8848734 -1
119.19575 12.69627 -5.583735 -1
119.82173 1.8195567 -6.2803149 -1
119.44875 -9.1281691 -6.9766822 -1
117.49733 24.289757 -2.0942888 -1
119.24763 13.12293 -2.7915766 -1
2.3136888 0.039173782 -0.067344591 20
119.60176 -8.8249798 -4.1879396 -1
0.1 0.1 0.1 -1
0.1 0.1 0.1 -1
119.50208 -9.8038626 4.8099556 -1
117.58002 22.940441 6.9766822 -1
119.27316 -8.9053926 9.7265797 -1
117.03076 22.134348 14.624321 -1
117.71384 -9.0369196 21.489235 -1
113.9812 21.063442 31.058285 -1
117.66356 23.554214 0.69742966 -1
119.37078 12.272604 0 -1
119.98902 1.4660153 -0.69742966 -1
119.6158 -9.4979973 -1.3594428 -1
117.60752 23.585697 3.4908643 -1
119.29847 12.644042 2.8290563 -1
119.97225 1.5076951 2.0942888 -1
119.61824 -9.4561739 1.434417 -1
0.1 0.1 0.1 -1
0.1 0.1 0.1 -1
0.1 0.1 0.1 -1
117.19146 23.183279 -11.344498 -1
117.56132 22.787731 -7.7495198 -1
119.13117 11.680913 -8.4451542 -1
119.64829 0.85619986 -9.1407118 -1
119.16377 -10.194988 -9.8008928 -1
117.55155 23.617161 -4.8848734 -1
119.23934 12.280122 -5.583735 -1
119.82735 1.4012897 -6.2803149 -1
119.41615 -9.5450668 -6.9766822 -1
117.5814 23.879467 -2.0942888 -1
119.2927 12.706597 -2.7915766 -1
119.93839 1.6119531 -3.4908643 -1
119.57023 -9.2424135 -4.1879396 -1
0.1 0.1 0.1 -1
0.1 0.1 0.1 -1
119.46713 -10.220942 4.8099556 -1
117.65939 22.529871 6.9766822 -1
119.24135 -9.3216791 9.7265797 -1
117.10732 21.7257 14.624321 -1
117.68157 -9.4477625 21.489235 -1
17.640356 3.1962557 4.8036814 3
117.74506 23.143349 0.69742966 -1
119.4129 11.855847 0 -1
119.9934 1.0471666 -0.69742966 -1
119.58192 -9.9154768 -1.3594428 -1
117.68913 23.175026 3.4908643 -1
119.34188 12.227535 2.8290563 -1
119.97678 1.0889046 2.0942888 -1
119.5845 -9.873662 1.434417 -1
0.1 0.1 0.1 -1
0.1 0.1 0.1 -1
0.1 0.1 0.1 -1
117.27167 22.774063 -11.344498 -1
117.64015 22.377228 -7.7495198 -1
119.17122 11.264997 -8.4451542 -1
119.65055 0.43854415 -9.1407118 -1
119.12746 -10.610886 -9.8008928 -1
117.63328 23.206684 -4.8848734 -1
119.28148 11.863824 -5.583735 -1
119.83151 0.98300564 -6.2803149 -1
119.38211 -9.9618492 -6.9766822 -1
117.66404 23.468885 -2.0942888 -1
119.33633 12.290111 -2.7915766 -1
119.94328 1.1932803 -3.4908643 -1
119.53724 -9.6597357 -4.1879396 -1
0.1 0.1 0.1 -1
0.1 0.1 0.1 -1
119.43073 -10.637898 4.8099556 -1
117.73731 22.119024 6.9766822 -1
119.20808 -9.7378521 9.7265797 -1
117.18244 21.316786 14.624321 -1
117.64788 -9.85849 21.489235 -1
17.613365 3.1279039 4.7933288 3
117.82513 22.732201 0.69742966 -1
119.45355 11.438946 0 -1
119.99633 0.62830508 -0.69742966 -1
119.54658 -10.332835 -1.3594428 -1
117.76931 22.764074 3.4908643 -1
119.38383 11.81088 2.8290563 -1
119.97985 0.67010087 2.0942888 -1
119.54931 -10.29103 1.434417 -1
0.1 0.1 0.1 -1
0.1 0.1 0.1 -1
0.1 0.1 0.1 -1
117.35045 22.364571 -11.344498 -1
117.71754 21.96645 -7.7495198 -1
119.20982 10.848943 -8.4451542 -1
119.65136 0.020883102 -9.1407118 -1
119.08969 -11.026653 -9.8008928 -1
117.71357 22.795927 -4.8848734 -1
119.32217 11.447382 -5.583735 -1
119.83421 0.5647096 -6.2803149 -1
119.3466 -10.37851 -6.9766822 -1
117.74524 23.058018 -2.0942888 -1
119.37851 11.873474 -2.7915766 -1
119.94672 0.77459282 -3.4908643 -1
119.50278 -10.07694 -4.1879396 -1
0.1 0.1 0.1 -1
0.1 0.1 0.1 -1
119.39287 -11.054725 4.8099556 -1
117.8138 21.707911 6.9766822 -1
119.17337 -10.153907 9.7265797 -1
117.25613 20.907614 14.624321 -1
117.61275 -10.269098 21.489235 -1
114.19553 19.868702 31.058285 -1
117.90376 22.320776 0.69742966 -1
119.49275 11.021906 0 -1
119.99779 0.20943587 -0.69742966 -1
119.50978 -10.750068 -1.3594428 -1
117.84805 22.352844 3.4908643 -1
119.42433 11.39408 2.8290563 -1
119.98146 0.25128895 2.0942888 -1
119.51266 -10.708272 1.434417 -1
0.1 0.1 0.1 -1
0.1 0.1 0.1 -1
0.1 0.1 0.1 -1
117.4278 21.954803 -11.344498 -1
117.7935 21.555405 -7.7495198 -1
119.24696 10.432757 -8.4451542 -1
119.6507 -0.3967782 -9.1407118 -1
119.05048 -11.442286 -9.8008928 -1
117.79242 22.38489 -4.8848734 -1
119.3614 11.0308 -5.583735 -1
119.83546 0.1464067 -6.2803149 -1
119.30965 -10.795044 -6.9766822 -1
117.82501 22.64687 -2.0942888 -1
119.41923 11.456694 -2.7915766 -1
119.94868 0.35589597 -3.4908643 -1
119.46689 -10.49402 -4.1879396 -1
0.1 0.1 0.1 -1
0.1 0.1 0.1 -1
119.35355 -11.471416 4.8099556 -1
117.88886 21.296532 6.9766822 -1
119.1372 -10.569838 9.7265797 -1
117.3284 20.498186 14.624321 -1
117.57619 -10.679581 21.489235 -1
114.26418 19.469963 31.058285 -1
117.98096 21.909079 0.69742966 -1
119.53049 10.604731 0 -1
119.99779 -0.20943587 -0.69742966 -1
119.47153 -11.167169 -1.3594428 -1
117.92536 21.941341 3.4908643 -1
119.46338 10.977142 2.8290563 -1
119.98161 -0.16752604 2.0942888 -1
119.47455 -11.125383 1.434417 -1
0.1 0.1 0.1 -1
0.1 0.1 0.1 -1
0.1 0.1 0.1 -1
117.50372 21.544771 -11.344498 -1
117.86803 21.144098 -7.7495198 -1
119.28265 10.016444 -8.4451542 -1
119.64858 -0.81443465 -9.1407118 -1
119.00981 -11.85778 -9.8008928 -1
117.86984 21.973581 -4.8848734 -1
119.39918 10.614083 -5.583735 -1
119.83524 -0.271898 -6.2803149 -1
119.27124 -11.211447 -6.9766822 -1
117.90334 22.235445 -2.0942888 -1
119.45849 11.039773 -2.7915766 -1
119.9492 -0.062805258 -3.4908643 -1
119.42953 -10.910974 -4.1879396 -1
0.1 0.1 0.1 -1
0.1 0.1 0.1 -1
119.31278 -11.887968 4.8099556 -1
117.96248 20.884893 6.9766822 -1
119.09958 -10.98564 9.7265797 -1
117.39924 20.088509 14.624321 -1
117.53819 -11.089933 21.489235 -1
114.33145 19.070988 31.058285 -1
118.05672 21.497114 0.69742966 -1
119.56679 10.187428 0 -1
119.99633 -0.62830508 -0.69742966 -1
119.43182 -11.584134 -1.3594428 -1
118.00124 21.529572 3.4908643 -1
119.50097 10.560071 2.8290563 -1
119.98029 -0.586339 2.0942888 -1
119.43499 -11.54236 1.434417 -1
0.1 0.1 0.1 -1
0.1 0.1 0.1 -1
0.1 0.1 0.1 -1
117.57822 21.134476 -11.344498 -1
117.94112 20.732533 -7.7495198 -1
119.31689 9.600009 -8.4451542 -1
119.64501 -1.2320812 -9.1407118 -1
118.9677 -12.27313 -9.8008928 -1
117.94582 21.562006 -4.8848734 -1
119.4355 10.197238 -5.583735 -1
119.83356 -0.69019938 -6.2803149 -1
119.23138 -11.627713 -6.9766822 -1
117.98024 21.823751 -2.0942888 -1
119.4963 10.622717 -2.7915766 -1
119.94825 -0.48150572 -3.4908643 -1
119.39071 -11.327794 -4.1879396 -1
0.1 0.1 0.1 -1
0.1 0.1 0.1 -1
119.26194 -12.387638 4.8099556 -1
118.04893 20.390591 6.9766822 -1
119.05251 -11.484425 9.7265797 -1
117.48235 19.596573 14.624321 -1
117.49071 -11.582177 21.489235 -1
114.41033 18.591911 31.058285 -1
118.14572 21.002413 0.69742966 -1
119.60841 9.6864986 0 -1
119.99265 -1.1309375 -0.69742966 -1
119.38225 -12.084306 -1.3594428 -1
118.09039 21.035101 3.4908643 -1
119.54415 10.059415 2.8290563 -1
119.97678 -1.0889046 2.0942888 -1
119.38559 -12.042545 1.434417 -1
0.1 0.1 0.1 -1
0.1 0.1 0.1 -1
0.1 0.1 0.1 -1
117.66571 20.641781 -11.344498 -1
118.02692 20.238321 -7.7495198 -1
119.35605 9.1001329 -8.4451542 -1
119.6388 -1.7332368 -9.1407118 -1
118.91525 -12.771352 -9.8008928 -1
118.03511 21.067768 -4.8848734 -1
119.47717 9.6968603 -5.583735 -1
119.82961 -1.1921495 -6.2803149 -1
119.18163 -12.127045 -6.9766822 -1
118.07063 21.329367 -2.0942888 -1
119.53974 10.122081 -2.7915766 -1
119.94518 -0.98393804 -3.4908643 -1
119.34222 -11.827796 -4.1879396 -1
0.1 0.1 0.1 -1
0.1 0.1 0.1 -1
119.21797 -12.803864 4.8099556 -1
118.11938 19.978399 6.9766822 -1
119.0117 -11.899926 9.7265797 -1
117.55004 19.186363 14.624321 -1
117.44956 -11.992226 21.489235 -1
114.47453 18.192432 31.058285 -1
118.21832 20.589878 0.69742966 -1
119.64149 9.2689285 0 -1
119.98797 -1.5497831 -0.69742966 -1
119.33934 -12.500954 -1.3594428 -1
118.16309 20.622761 3.4908643 -1
119.57854 9.642067 2.8290563 -1
119.97225 -1.5076951 2.0942888 -1
119.34283 -12.459206 1.434417 -1
0.1 0.1 0.1 -1
0.1 0.1 0.1 -1
0.1 0.1 0.1 -1
117.73705 20.230925 -11.344498 -1
118.09686 19.826208 -7.7495198 -1
119.38709 8.6834469 -8.4451542 -1
119.63203 -2.1508436 -9.1407118 -1
118.86994 -13.186366 -9.8008928 -1
118.10793 20.655619 -4.8848734 -1
119.51028 9.279748 -5.583735 -1
119.82472 -1.6104256 -6.2803149 -1
119.13857 -12.542993 -6.9766822 -1
118.14436 20.917093 -2.0942888 -1
119.57435 9.7047472 -2.7915766 -1
119.94101 -1.4026189 -3.4908643 -1
119.3002 -12.244306 -4.1879396 -1
0.1 0.1 0.1 -1
0.1 0.1 0.1 -1
119.17255 -13.219935 4.8099556 -1
118.18841 19.565964 6.9766822 -1
118.96944 -12.315282 9.7265797 -1
117.6163 18.775921 14.624321 -1
117.40698 -12.402128 21.489235 -1
114.53734 17.79273 31.058285 -1
118.28947 20.177095 0.69742966 -1
119.67312 8.8512459 0 -1
119.98183 -1.9686098 -0.69742966 -1
119.29498 -12.91745 -1.3594428 -1
118.23436 20.210169 3.4908643 -1
119.61147 9.2246008 2.8290563 -1
119.96626 -1.9264673 2.0942888 -1
119.29861 -12.875713 1.434417 -1
0.1 0.1 0.1 -1
0.1 0.1 0.1 -1
0.1 0.1 0.1 -1
117.80695 19.819822 -11.344498 -1
118.16534 19.413853 -7.7495198 -1
119.41667 8.266655 -8.4451542 -1
119.62379 -2.5684242 -9.1407118 -1
118.82319 -13.601219 -9.8008928 -1
118.17931 20.243219 -4.8848734 -1
119.54195 8.8625221 -5.583735 -1
119.81837 -2.0286822 -6.2803149 -1
119.09406 -12.958787 -6.9766822 -1
118.21665 20.504564 -2.0942888 -1
119.6075 9.2872963 -2.7915766 -1
119.93539 -1.8212826 -3.4908643 -1
119.25674 -12.660666 -4.1879396 -1
0.1 0.1 0.1 -1
0.1 0.1 0.1 -1
119.12568 -13.635844 4.8099556 -1
118.25598 19.15329 6.9766822 -1
118.92573 -12.730488 9.7265797 -1
117.68112 18.365248 14.624321 -1
117.36298 -12.811879 21.489235 -1
114.59875 17.392813 31.058285 -1
118.35918 19.764065 0.69742966 -1
119.70329 8.4334545 0 -1
119.97422 -2.3874125 -0.69742966 -1
119.24916 -13.333789 -1.3594428 -1
118.30418 19.797331 3.4908643 -1
119.64294 8.807023 2.8290563 -1
119.9588 -2.3452158 2.0942888 -1
119.25294 -13.292066 1.434417 -1
0.1 0.1 0.1 -1
0.1 0.1 0.1 -1
0.1 0.1 0.1 -1
117.87541 19.408478 -11.344498 -1
118.23238 19.001261 -7.7495198 -1
119.4448 7.8497629 -8.4451542 -1
119.61409 -2.9859736 -9.1407118 -1
118.77499 -14.015906 -9.8008928 -1
118.24925 19.830574 -4.8848734 -1
119.57216 8.4451895 -5.583735 -1
119.81056 -2.446914 -6.2803149 -1
119.0481 -13.374424 -6.9766822 -1
118.28751 20.091787 -2.0942888 -1
119.63918 8.8697309 -2.7915766 -1
119.9283 -2.2399242 -3.4908643 -1
119.21181 -13.076874 -4.1879396 -1
0.1 0.1 0.1 -1
0.1 0.1 0.1 -1
119.07735 -14.051588 4.8099556 -1
118.32212 18.740383 6.9766822 -1
118.88056 -13.145538 9.7265797 -1
117.74451 17.954353 14.624321 -1
117.31754 -13.221475 21.489235 -1
114.65876 16.992682 31.058285 -1
118.42744 19.350794 0.69742966 -1
119.73199 8.0155611 0 -1
119.96516 -2.8061862 -0.69742966 -1
119.20189 -13.749965 -1.3594428 -1
118.37257 19.384251 3.4908643 -1
119.67295 8.3893375 2.8290563 -1
119.94988 -2.763936 2.0942888 -1
119.20582 -13.708255 1.434417 -1
0.1 0.1 0.1 -1
0.1 0.1 0.1 -1
0.1 0.1 0.1 -1
117.94244 18.996899 -11.344498 -1
118.29799 18.588436 -7.7495198 -1
119.47147 7.4327745 -8.4451542 -1
119.60294 -3.4034865 -9.1407118 -1
118.72533 -14.430423 -9.8008928 -1
118.31776 19.417686 -4.8848734 -1
119.60091 8.0277529 -5.583735 -1
119.80129 -2.8651159 -6.2803149 -1
119.00069 -13.789898 -6.9766822 -1
118.35692 19.678764 -2.0942888 -1
119.66942 8.4520588 -2.7915766 -1
119.91975 -2.6585383 -3.4908643 -1
119.16544 -13.492921 -4.1879396 -1
0.1 0.1 0.1 -1
0.1 0.1 0.1 -1
119.02758 -14.467159 4.8099556 -1
118.38682 18.327248 6.9766822 -1
118.83395 -13.560429 9.7265797 -1
117.80647 17.543238 14.624321 -1
117.27068 -13.630909 21.489235 -1
114.71738 16.592344 31.058285 -1
118.49427 18.937286 0.69742966 -1
119.75925 7.597569 0 -1
119.95463 -3.2249258 -0.69742966 -1
119.15317 -14.165973 -1.3594428 -1
118.43951 18.970936 3.4908643 -1
119.70151 7.9715495 2.8290563 -1
119.93951 -3.1826224 2.0942888 -1
119.15723 -14.124277 1.434417 -1
0.1 0.1 0.1 -1
0.1 0.1 0.1 -1
0.1 0.1 0.1 -1
118.00803 18.585087 -11.344498 -1
118.36216 18.175386 -7.7495198 -1
119.49669 7.015696 -8.4451542 -1
119.59033 -3.8209579 -9.1407118 -1
118.67424 -14.844764 -9.8008928 -1
118.38482 19.004562 -4.8848734 -1
119.6282 7.610219 -5.583735 -1
119.79056 -3.283283 -6.2803149 -1
118.95183 -14.205204 -6.9766822 -1
118.42489 19.265501 -2.0942888 -1
119.6982 8.0342827 -2.7915766 -1
119.90974 -3.0771203 -3.4908643 -1
119.11761 -13.908803 -4.1879396 -1
0.1 0.1 0.1 -1
0.1 0.1 0.1 -1
118.97636 -14.882555 4.8099556 -1
118.45007 17.913889 6.9766822 -1
118.7859 -13.975154 9.7265797 -1
117.86699 17.13191 14.624321 -1
117.22238 -14.040176 21.489235 -1
114.7746 16.191805 31.058285 -1
118.55965 18.523548 0.69742966 -1
119.78503 7.1794853 0 -1
119.94264 -3.6436257 -0.69742966 -1
119.10299 -14.581809 -1.3594428 -1
118.50501 18.557388 3.4908643 -1
119.72861 7.5536647 2.8290563 -1
119.92767 -3.60127 2.0942888 -1
119.10721 -14.540128 1.434417 -1
0.1 0.1 0.1 -1
0.1 0.1 0.1 -1
0.1 0.1 0.1 -1
118.07219 18.173048 -11.344498 -1
118.42488 17.762114 -7.7495198 -1
119.52045 6.5985322 -8.4451542 -1
119.57626 -4.2383828 -9.1407118 -1
118.6217 -15.258924 -9.8008928 -1
118.45043 18.591206 -4.8848734 -1
119.65404 7.1925921 -5.583735 -1
119.77837 -3.7014101 -6.2803149 -1
118.90152 -14.620337 -6.9766822 -1
118.49142 18.852003 -2.0942888 -1
119.72551 7.6164093 -2.7915766 -1
119.89827 -3.4956646 -3.4908643 -1
119.06834 -14.324516 -4.1879396 -1
0.1 0.1 0.1 -1
0.1 0.1 0.1 -1
118.92368 -15.29777 4.8099556 -1
118.51188 17.500311 6.9766822 -1
118.73639 -14.389709 9.7265797 -1
117.92607 16.720373 14.624321 -1
117.17265 -14.449273 21.489235 -1
114.83042 15.791068 31.058285 -1
118.62359 18.109585 0.69742966 -1
119.80936 6.7613134 0 -1
119.92919 -4.0622816 -0.69742966 -1
119.05137 -14.997467 -1.3594428 -1
118.56906 18.143616 3.4908643 -1
119.75424 7.1356878 2.8290563 -1
119.91436 -4.0198736 2.0942888 -1
119.05573 -14.955801 1.434417 -1
0.1 0.1 0.1 -1
0.1 0.1 0.1 -1
0.1 0.1 0.1 -1
118.13491 17.76079 -11.344498 -1
118.48616 17.348625 -7.7495198 -1
119.54276 6.1812878 -8.4451542 -1
119.56075 -4.655756 -9.1407118 -1
118.56771 -15.672898 -9.8008928 -1
118.51461 18.177624 -4.8848734 -1
119.67841 6.774878 -5.583735 -1
119.76472 -4.1194921 -6.2803149 -1
118.84976 -15.035292 -6.9766822 -1
118.5565 18.438276 -2.0942888 -1
119.75137 7.1984429 -2.7915766 -1
119.88533 -3.9141662 -3.4908643 -1
119.01761 -14.740055 -4.1879396 -1
0.1 0.1 0.1 -1
0.1 0.1 0.1 -1
118.86956 -15.712797 4.8099556 -1
118.57224 17.086521 6.9766822 -1
118.68543 -14.804089 9.7265797 -1
117.98372 16.308632 14.624321 -1
117.12151 -14.858194 21.489235 -1
114.88484 15.39014 31.058285 -1
118.68608 17.695402 0.69742966 -1
119.83224 6.3430595 0 -1
119.91428 -4.4808879 -0.69742966 -1
118.99829 -15.412943 -1.3594428 -1
118.63168 17.729622 3.4908643 -1
119.77842 6.7176242 2.8290563 -1
119.8996 -4.4384284 2.0942888 -1
119.0028 -15.371291 1.434417 -1
0.1 0.1 0.1 -1
0.1 0.1 0.1 -1
0.1 0.1 0.1 -1
118.19618 17.348312 -11.344498 -1
118.546 16.934927 -7.7495198 -1
119.56361 5.763968 -8.4451542 -1
119.54376 -5.0730724 -9.1407118 -1
118.51228 -16.086681 -9.8008928 -1
118.57734 17.763819 -4.8848734 -1
119.70133 6.3570809 -5.583735 -1
119.74961 -4.5375237 -6.2803149 -1
118.79655 -15.450063 -6.9766822 -1
118.62014 18.024324 -2.0942888 -1
119.77576 6.7803888 -2.7915766 -1
119.87094 -4.3326201 -3.4908643 -1
118.96543 -15.155415 -4.1879396 -1
0.1 0.1 0.1 -1
0.1 0.1 0.1 -1
118.81399 -16.127634 4.8099556 -1
118.63116 16.672523 6.9766822 -1
118.63303 -15.218288 9.7265797 -1
118.03992 15.896693 14.624321 -1
117.06892 -15.266934 21.489235 -1
114.93786 14.989022 31.058285 -1
118.74713 17.281002 0.69742966 -1
119.85365 5.9247284 0 -1
119.89791 -4.8994393 -0.69742966 -1
118.94376 -15.82823 -1.3594428 -1
118.69284 17.315413 3.4908643 -1
119.80114 6.2994785 2.8290563 -1
119.88338 -4.8569293 2.0942888 -1
118.94842 -15.786595 1.434417 -1
0.1 0.1 0.1 -1
0.1 0.1 0.1 -1
0.1 0.1 0.1 -1
118.25602 16.935625 -11.344498 -1
118.60439 16.521021 -7.7495198 -1
119.583 5.3465781 -8.4451542 -1
119.52533 -5.4903274 -9.1407118 -1
118.45541 -16.500269 -9.8008928 -1
118.63862 17.3498 -4.8848734 -1
119.72279 5.9392066 -5.583735 -1
119.73304 -4.9555001 -6.2803149 -1
118.7419 -15.864646 -6.9766822 -1
118.68233 17.610153 -2.0942888 -1
119.7987 6.3622518 -2.7915766 -1
119.85509 -4.7510219 -3.4908643 -1
118.9118 -15.570589 -4.1879396 -1
0.1 0.1 0.1 -1
0.1 0.1 0.1 -1
118.75697 -16.542274 4.8099556 -1
118.68864 16.258322 6.9766822 -1
118.57919 -15.632302 9.7265797 -1
118.0947 15.48456 14.624321 -1
117.01492 -15.675488 21.489235 -1
114.98949 14.587723 31.058285 -1
118.80672 16.866392 0.69742966 -1
119.8736 5.5063248 0 -1
119.88008 -5.3179317 -0.69742966 -1
118.88779 -16.243324 -1.3594428 -1
118.75256 16.900991 3.4908643 -1
119.8224 5.8812561 2.8290563 -1
119.86569 -5.2753706 2.0942888 -1
118.89259 -16.201706 1.434417 -1
0.1 0.1 0.1 -1
0.1 0.1 0.1 -1
0.1 0.1 0.1 -1
118.31441 16.522732 -11.344498 -1
118.66133 16.106913 -7.7495198 -1
119.60093 4.9291229 -8.4451542 -1
119.50543 -5.907515 -9.1407118 -1
118.39709 -16.913654 -9.8008928 -1
118.69846 16.935568 -4.8848734 -1
119.7428 5.5212598 -5.583735 -1
119.71501 -5.3734164 -6.2803149 -1
118.6858 -16.279036 -6.9766822 -1
118.74308 17.195768 -2.0942888 -1
119.82018 5.9440379 -2.7915766 -1
119.83777 -5.1693649 -3.4908643 -1
118.85673 -15.985574 -4.1879396 -1
0.1 0.1 0.1 -1
0.1 0.1 0.1 -1
118.6985 -16.956713 4.8099556 -1
118.74467 15.843922 6.9766822 -1
118.5239 -16.046125 9.7265797 -1
118.14803 15.072239 14.624321 -1
116.95949 -16.083851 21.489235 -1
115.0397 14.186246 31.058285 -1
118.86488 16.451576 0.69742966 -1
119.89209 5.0878544 0 -1
119.86079 -5.7363586 -0.69742966 -1
118.83037 -16.658222 -1.3594428 -1
118.81083 16.486364 3.4908643 -1
119.8422 5.4629622 2.8290563 -1
119.84655 -5.693748 2.0942888 -1
118.8353 -16.616621 1.434417 -1
0.1 0.1 0.1 -1
0.1 0.1 0.1 -1
0.1 0.1 0.1 -1
118.37138 16.109636 -11.344498 -1
118.71684 15.69261 -7.7495198 -1
119.61741 4.5116076 -8.4451542 -1
119.48409 -6.3246307 -9.1407118 -1
118.33733 -17.326834 -9.8008928 -1
118.75685 16.52113 -4.8848734 -1
119.76134 5.1032457 -5.583735 -1
119.69553 -5.7912669 -6.2803149 -1
118.62825 -16.693228 -6.9766822 -1
118.80238 16.781172 -2.0942888 -1
119.84019 5.5257511 -2.7915766 -1
119.819 -5.5876455 -3.4908643 -1
118.80021 -16.400364 -4.1879396 -1
0.1 0.1 0.1 -1
0.1 0.1 0.1 -1
118.63859 -17.370945 4.8099556 -1
118.79925 15.429329 6.9766822 -1
118.46717 -16.459753 9.7265797 -1
118.19992 14.659733 14.624321 -1
116.90263 -16.492018 21.489235 -1
115.08852 13.784596 31.058285 -1
118.92158 16.03656 0.69742966 -1
119.90912 4.669322 0 -1
119.84003 -6.154716 -0.69742966 -1
118.77149 -17.072916 -1.3594428 -1
118.86765 16.071537 3.4908643 -1
119.86053 5.0446014 2.8290563 -1
119.82594 -6.1120558 2.0942888 -1
118.77658 -17.031332 1.434417 -1
0.1 0.1 0.1 -1
0.1 0.1 0.1 -1
0.1 0.1 0.1 -1
118.42689 15.696345 -11.344498 -1
118.77089 15.278115 -7.7495198 -1
119.63243 4.0940375 -8.4451542 -1
119.46128 -6.7416697 -9.1407118 -1
118.27612 -17.739803 -9.8008928 -1
118.8138 16.106489 -4.8848734 -1
119.77843 4.6851697 -5.583735 -1
119.67458 -6.2090473 -6.2803149 -1
118.56926 -17.107216 -6.9766822 -1
118.86024 16.366373 -2.0942888 -1
119.85876 5.1073971 -2.7915766 -1
119.79876 -6.0058579 -3.4908643 -1
118.74223 -16.814955 -4.1879396 -1
0.1 0.1 0.1 -1
0.1 0.1 0.1 -1
118.57723 -17.784964 4.8099556 -1
118.85239 15.014548 6.9766822 -1
118.40899 -16.87318 9.7265797 -1
118.25037 14.247049 14.624321 -1
116.84435 -16.899984 21.489235 -1
115.13594 13.382778 31.058285 -1
118.97684 15.621348 0.69742966 -1
119.92469 4.2507324 0 -1
119.81782 -6.572998 -0.69742966 -1
118.71117 -17.487402 -1.3594428 -1
118.92303 15.656514 3.4908643 -1
119.87742 4.6261792 2.8290563 -1
119.80388 -6.5302892 2.0942888 -1
118.71641 -17.445835 1.434417 -1
0.1 0.1 0.1 -1
0.1 0.1 0.1 -1
0.1 0.1 0.1 -1
118.48096 15.282863 -11.344498 -1
118.82349 14.863434 -7.7495198 -1
119.64599 3.6764174 -8.4451542 -1
119.43702 -7.1586261 -9.1407118 -1
118.21348 -18.152555 -9.8008928 -1
118.8693 15.691654 -4.8848734 -1
119.79405 4.2670364 -5.583735 -1
119.65218 -6.6267514 -6.2803149 -1
118.50882 -17.520996 -6.9766822 -1
118.91664 15.951373 -2.0942888 -1
119.87585 4.6889806 -2.7915766 -1
119.77707 -6.4239969 -3.4908643 -1
118.68282 -17.22934 -4.1879396 -1
0.1 0.1 0.1 -1
0.1 0.1 0.1 -1
118.51443 -18.198769 4.8099556 -1
118.90407 14.599585 6.9766822 -1
118.34937 -17.286402 9.7265797 -1
118.29939 13.834191 14.624321 -1
116.78465 -17.307743 21.489235 -1
115.18195 12.980798 31.058285 -1
119.03064 15.205947 0.69742966 -1
119.9388 3.8320913 0 -1
119.79414 -6.9912004 -0.69742966 -1
118.64941 -17.901674 -1.3594428 -1
118.97696 15.2413 3.4908643 -1
119.89284 4.2077007 2.8290563 -1
119.78036 -6.9484429 2.0942888 -1
118.65479 -17.860126 1.434417 -1
0.1 0.1 0.1 -1
0.1 0.1 0.1 -1
0.1 0.1 0.1 -1
118.53358 14.869194 -11.344498 -1
118.87466 14.448572 -7.7495198 -1
119.6581 3.2587526 -8.4451542 -1
119.4113 -7.5754957 -9.1407118 -1
118.1494 -18.565086 -9.8008928 -1
118.92335 15.276628 -4.8848734 -1
119.80821 3.8488512 -5.583735 -1
119.62832 -7.0443754 -6.2803149 -1
118.44694 -17.934561 -6.9766822 -1
118.9716 15.53618 -2.0942888 -1
119.89149 4.2705073 -2.7915766 -1
119.75391 -6.8420577 -3.4908643 -1
118.62196 -17.643515 -4.1879396 -1
0.1 0.1 0.1 -1
0.1 0.1 0.1 -1
118.45018 -18.612349 4.8099556 -1
118.95431 14.184443 6.9766822 -1
118.28831 -17.699413 9.7265797 -1
118.34695 13.421165 14.624321 -1
116.72353 -17.715292 21.489235 -1
115.22656 12.578658 31.058285 -1
119.08299 14.790359 0.69742966 -1
119.95145 3.4134035 0 -1
119.76901 -7.4093175 -0.69742966 -1
118.5862 -18.315729 -1.3594428 -1
119.02943 14.8259 3.4908643 -1
119.90679 3.7891712 2.8290563 -1
119.75537 -7.3665118 2.0942888 -1
118.59172 -18.2742 1.434417 -1
0.1 0.1 0.1 -1
0.1 0.1 0.1 -1
0.1 0.1 0.1 -1
118.58476 14.455344 -11.344498 -1
118.92437 14.033534 -7.7495198 -1
119.66874 2.841048 -8.4451542 -1
119.38413 -7.9922729 -9.1407118 -1
118.08387 -18.977392 -9.8008928 -1
118.97595 14.861414 -4.8848734 -1
119.82092 3.430619 -5.583735 -1
119.603 -7.4619131 -6.2803149 -1
118.38361 -18.34791 -6.9766822 -1
119.0251 15.120796 -2.0942888 -1
119.90567 3.8519819 -2.7915766 -1
119.7293 -7.260035 -3.4908643 -1
118.55964 -18.057476 -4.1879396 -1
0.1 0.1 0.1 -1
0.1 0.1 0.1 -1
118.38449 -19.025703 4.8099556 -1
119.0031 13.769128 6.9766822 -1
118.22581 -18.112209 9.7265797 -1
118.39308 13.007976 14.624321 -1
116.66097 -18.122625 21.489235 -1
115.26977 12.176366 31.058285 -1
119.1339 14.374593 0.69742966 -1
119.96262 2.994674 0 -1
119.74242 -7.8273439 -0.69742966 -1
118.52154 -18.729561 -1.3594428 -1
119.08046 14.410319 3.4908643 -1
119.91929 3.3705952 2.8290563 -1
119.72893 -7.7844915 2.0942888 -1
118.52721 -18.688051 1.434417 -1
0.1 0.1 0.1 -1
0.1 0.1 0.1 -1
0.1 0.1 0.1 -1
118.6345 14.041318 -11.344498 -1
118.97263 13.618325 -7.7495198 -1
119.67793 2.4233088 -8.4451542 -1
119.35551 -8.4089527 -9.1407118 -1
118.01691 -19.389465 -9.8008928 -1
119.0271 14.44602 -4.8848734 -1
119.83216 3.0123451 -5.583735 -1
119.57623 -7.8793602 -6.2803149 -1
118.31885 -18.761034 -6.9766822 -1
119.07716 14.705229 -2.0942888 -1
119.91838 3.4334095 -2.7915766 -1
119.70323 -7.6779242 -3.4908643 -1
118.49589 -18.471216 -4.1879396 -1
0.1 0.1 0.1 -1
0.1 0.1 0.1 -1
118.31735 -19.438828 4.8099556 -1
119.05044 13.353646 6.9766822 -1
118.16187 -18.524784 9.7265797 -1
118.43777 12.594627 14.624321 -1
116.59701 -18.529737 21.489235 -1
115.31157 11.773925 31.058285 -1
119.18334 13.95865 0.69742966 -1
119.97235 2.5759082 0 -1
119.71436 -8.2452755 -0.69742966 -1
118.45544 -19.143164 -1.3594428 -1
119.13004 13.994563 3.4908643 -1
119.93032 2.9519784 2.8290563 -1
119.70103 -8.2023754 2.0942888 -1
118.46125 -19.101675 1.434417 -1
0.1 0.1 0.1 -1
0.1 0.1 0.1 -1
0.1 0.1 0.1 -1
118.68279 13.627121 -11.344498 -1
119.01944 13.20295 -7.7495198 -1
119.68566 2.0055401 -8.4451542 -1
119.32542 -8.8255291 -9.1407118 -1
117.94851 -19.801304 -9.8008928 -1
119.0768 14.03045 -4.8848734 -1
119.84195 2.5940344 -5.583735 -1
119.54799 -8.296711 -6.2803149 -1
118.25264 -19.173929 -6.9766822 -1
119.12777 14.289482 -2.0942888 -1
119.92964 3.0147953 -2.7915766 -1
119.6757 -8.0957193 -3.4908643 -1
118.43069 -18.884731 -4.1879396 -1
0.1 0.1 0.1 -1
0.1 0.1 0.1 -1
118.24878 -19.851713 4.8099556 -1
119.09632 12.938001 6.9766822 -1
118.09648 -18.937132 9.7265797 -1
118.48101 12.181126 14.624321 -1
116.53162 -18.936625 21.489235 -1
115.35197 11.371341 31.058285 -1
119.23135 13.542538 0.69742966 -1
119.98061 2.1571107 0 -1
119.68485 -8.663106 -0.69742966 -1
118.38789 -19.556534 -1.3594428 -1
119.17816 13.578636 3.4908643 -1
119.9399 2.5333254 2.8290563 -1
119.67166 -8.6201601 2.0942888 -1
118.39385 -19.515066 1.434417 -1
0.1 0.1 0.1 -1
0.1 0.1 0.1 -1
0.1 0.1 0.1 -1
118.72963 13.212757 -11.344498 -1
119.0648 12.787415 -7.7495198 -1
119.69193 1.587747 -8.4451542 -1
119.29389 -9.2419996 -9.1407118 -1
117.87867 -20.2129 -9.8008928 -1
119.12505 13.614709 -4.8848734 -1
119.85027 2.1756921 -5.583735 -1
119.5183 -8.7139606 -6.2803149 -1
118.18499 -19.586592 -6.9766822 -1
119.17692 13.873562 -2.0942888 -1
119.93943 2.5961444 -2.7915766 -1
119.64671 -8.5134163 -3.4908643 -1
118.36404 -19.298016 -4.1879396 -1
0.1 0.1 0.1 -1
0.1 0.1 0.1 -1
118.17876 -20.264359 4.8099556 -1
119.14076 12.522199 6.9766822 -1
118.02966 -19.349251 9.7265797 -1
118.5228 11.767475 14.624321 -1
116.46481 -19.343281 21.489235 -1
115.39095 10.968618 31.058285 -1
119.27789 13.12626 0.69742966 -1
119.98741 1.7382871 0 -1
119.65388 -9.0808315 -0.69742966 -1
118.31891 -19.969666 -1.3594428 -1
119.22484 13.162544 3.4908643 -1
119.94801 2.1146417 2.8290563 -1
119.64085 -9.0378399 2.0942888 -1
118.32501 -19.928219 1.434417 -1
0.1 0.1 0.1 -1
0.1 0.1 0.1 -1
0.1 0.1 0.1 -1
118.77503 12.798233 -11.344498 -1
119.10871 12.371722 -7.7495198 -1
119.69675 1.1699345 -8.4451542 -1
119.2609 -9.6583567 -9.1407118 -1
117.8074 -20.62425 -9.8008928 -1
119.17185 13.198802 -4.8848734 -1
119.85714 1.7573234 -5.583735 -1
119.48716 -9.1311045 -6.2803149 -1
118.1159 -19.999014 -6.9766822 -1
119.22462 13.457473 -2.0942888 -1
119.94776 2.1774619 -2.7915766 -1
119.61626 -8.9310093 -3.4908643 -1
118.29597 -19.711067 -4.1879396 -1
0.1 0.1 0.1 -1
0.1 0.1 0.1 -1
118.10731 -20.676756 4.8099556 -1
119.18375 12.106243 6.9766822 -1
117.9614 -19.761133 9.7265797 -1
118.56316 11.353682 14.624321 -1
116.39658 -19.749701 21.489235 -1
115.42854 10.565762 31.058285 -1
119.32298 12.709823 0.69742966 -1
119.99274 1.3194423 0 -1
119.62146 -9.4984465 -0.69742966 -1
118.24848 -20.382553 -1.3594428 -1
119.27006 12.746292 3.4908643 -1
119.95466 1.695932 2.8290563 -1
119.60857 -9.455409 2.0942888 -1
118.25473 -20.341127 1.434417 -1
0.1 0.1 0.1 -1
0.1 0.1 0.1 -1
0.1 0.1 0.1 -1
118.81898 12.383554 -11.344498 -1
119.15117 11.95588 -7.7495198 -1
119.7001 0.7521078 -8.4451542 -1
119.22646 -10.074595 -9.1407118 -1
117.73469 -21.035349 -9.8008928 -1
119.21719 12.782734 -4.8848734 -1
119.86254 1.3389331 -5.583735 -1
119.45455 -9.5481367 -6.2803149 -1
118.04537 -20.411194 -6.9766822 -1
119.27087 13.041219 -2.0942888 -1
119.95464 1.7587528 -2.7915766 -1
119.58436 -9.3484936 -3.4908643 -1
118.22644 -20.123877 -4.1879396 -1
0.1 0.1 0.1 -1
0.1 0.1 0.1 -1
118.03442 -21.088902 4.8099556 -1
119.22527 11.690141 6.9766822 -1
117.8917 -20.172775 9.7265797 -1
118.60207 10.93975 14.624321 -1
116.32693 -20.15588 21.489235 -1
115.46471 10.162777 31.058285 -1
119.36662 12.29323 0.69742966 -1
119.99662 0.90058142 0 -1
119.58757 -9.9159451 -0.69742966 -1
118.17661 -20.795195 -1.3594428 -1
119.31382 12.329884 3.4908643 -1
119.95985 1.2772018 2.8290563 -1
119.57483 -9.8728638 2.0942888 -1
118.18301 -20.75379 1.434417 -1
0.1 0.1 0.1 -1
0.1 0.1 0.1 -1
0.1 0.1 0.1 -1
118.86148 11.968722 -11.344498 -1
119.19218 11.539892 -7.7495198 -1
119.702 0.33427191 -8.4451542 -1
119.19057 -10.490712 -9.1407118 -1
117.66055 -21.446192 -9.8008928 -1
119.26109 12.36651 -4.8848734 -1
119.86649 0.92052662 -5.583735 -1
119.4205 -9.9650526 -6.2803149 -1
117.9734 -20.823124 -6.9766822 -1
119.31567 12.624806 -2.0942888 -1
119.96004 1.3400222 -2.7915766 -1
119.551 -9.7658644 -3.4908643 -1
118.15547 -20.53644 -4.1879396 -1
0.1 0.1 0.1 -1
0.1 0.1 0.1 -1
117.96008 -21.50079 4.8099556 -1
119.26536 11.273895 6.9766822 -1
117.82056 -20.584171 9.7265797 -1
118.63953 10.525685 14.624321 -1
116.25586 -20.561813 21.489235 -1
115.49949 9.7596674 31.058285 -1
119.40881 11.876488 0.69742966 -1
119.99903 0.48170957 0 -1
119.55223 -10.333323 -0.69742966 -1
118.1033 -21.207581 -1.3594428 -1
119.35613 11.913326 3.4908643 -1
119.96358 0.85845602 2.8290563 -1
119.53964 -10.290197 2.0942888 -1
118.10984 -21.166199 1.434417 -1
0.1 0.1 0.1 -1
0.1 0.1 0.1 -1
0.1 0.1 0.1 -1
118.90253 11.553745 -11.344498 -1
119.23174 11.123764 -7.7495198 -1
119.70243 -0.083568074 -8.4451542 -1
119.15323 -10.906701 -9.1407118 -1
117.58497 -21.856773 -9.8008928 -1
119.30353 11.950136 -4.8848734 -1
119.86897 0.50210887 -5.583735 -1
119.38499 -10.381847 -6.2803149 -1
117.89999 -21.234802 -6.9766822 -1
119.35901 12.20824 -2.0942888 -1
119.96399 0.92127538 -2.7915766 -1
119.51618 -10.183116 -3.4908643 -1
118.08307 -20.948755 -4.1879396 -1
0.1 0.1 0.1 -1
0.1 0.1 0.1 -1
117.88431 -21.912416 4.8099556 -1
119.30399 10.857513 6.9766822 -1
117.74799 -20.995316 9.7265797 -1
118.67555 10.111491 14.624321 -1
116.18337 -20.967497 21.489235 -1
115.53285 9.3564396 31.058285 -1
119.44953 11.459601 0.69742966 -1
119.99998 0.062831849 0 -1
119.51543 -10.750576 -0.69742966 -1
118.02856 -21.619709 -1.3594428 -1
119.39699 11.496623 3.4908643 -1
119.96584 0.43969974 2.8290563 -1
119.50299 -10.707406 2.0942888 -1
118.03524 -21.57835 1.434417 -1
0.1 0.1 0.1 -1
0.1 0.1 0.1 -1
0.1 0.1 0.1 -1
118.94215 11.138627 -11.344498 -1
119.26984 10.7075 -7.7495198 -1
119.70141 -0.50140703 -8.4451542 -1
119.11443 -11.322557 -9.1407118 -1
117.50796 -22.267088 -9.8008928 -1
119.34452 11.533617 -4.8848734 -1
119.87 0.083685055 -5.583735 -1
119.34802 -10.798515 -6.2803149 -1
117.82516 -21.646221 -6.9766822 -1
119.40089 11.791525 -2.0942888 -1
119.96648 0.50251734 -2.7915766 -1
119.47991 -10.600243 -3.4908643 -1
118.00922 -21.360815 -4.1879396 -1
0.1 0.1 0.1 -1
0.1 0.1 0.1 -1
117.80711 -22.323776 4.8099556 -1
119.34116 10.440998 6.9766822 -1
117.67399 -21.406206 9.7265797 -1
118.71013 9.697175 14.624321 -1
116.10947 -21.372925 21.489235 -1
115.56481 8.9530973 31.058285 -1
119.48881 11.042575 0.69742966 -1
119.99947 -0.35604665 0 -1
119.47718 -11.167697 -0.69742966 -1
117.95237 -22.031574 -1.3594428 -1
119.43639 11.07978 3.4908643 -1
119.96664 0.02093813 2.8290563 -1
119.46489 -11.124484 2.0942888 -1
117.9592 -21.99024 1.434417 -1
0.1 0.1 0.1 -1
0.1 0.1 0.1 -1
0.1 0.1 0.1 -1
118.9803 10.723374 -11.344498 -1
119.30649 10.291104 -7.7495198 -1
119.69893 -0.91923988 -8.4451542 -1
119.07418 -11.738276 -9.1407118 -1
117.42951 -22.677132 -9.8008928 -1
119.38405 11.116957 -4.8848734 -1
119.86955 -0.3347398 -5.583735 -1
119.3096 -11.215052 -6.2803149 -1
117.74888 -22.057375 -6.9766822 -1
119.44133 11.374666 -2.0942888 -1
119.9675 0.083753124 -2.7915766 -1
119.44218 -11.017241 -3.4908643 -1
117.93394 -21.772614 -4.1879396 -1
0.1 0.1 0.1 -1
0.1 0.1 0.1 -1
117.72846 -22.734863 4.8099556 -1
119.37688 10.024356 6.9766822 -1
117.59855 -21.816833 9.7265797 -1
118.74326 9.2827406 14.624321 -1
116.03416 -21.778093 21.489235 -1
115.59536 8.5496464 31.058285 -1
119.52663 10.625414 0.69742966 -1
119.9975 -0.77492082 0 -1
119.43747 -11.584682 -0.69742966 -1
117.87475 -22.443171 -1.3594428 -1
119.47434 10.662801 3.4908643 -1
119.96599 -0.39782375 2.8290563 -1
119.42533 -11.541427 2.0942888 -1
117.88171 -22.401859 1.434417 -1
0.1 0.1 0.1 -1
0.1 0.1 0.1 -1
0.1 0.1 0.1 -1
119.01701 10.30799 -11.344498 -1
119.34168 9.8745852 -7.7495198 -1
119.69499 -1.3370615 -8.4451542 -1
119.03248 -12.153851 -9.1407118 -1
117.34964 -23.086899 -9.8008928 -1
119.42213 10.70016 -4.8848734 -1
119.86765 -0.7531606 -5.583735 -1
119.26972 -11.631452 -6.2803149 -1
117.67117 -22.468262 -6.9766822 -1
119.48031 10.957669 -2.0942888 -1
119.96706 -0.33501211 -2.7915766 -1
119.40299 -11.434105 -3.4908643 -1
117.85722 -22.184147 -4.1879396 -1
0.1 0.1 0.1 -1
0.1 0.1 0.1 -1
117.64838 -23.145674 4.8099556 -1
119.41114 9.6075926 6.9766822 -1
117.52168 -22.227196 9.7265797 -1
118.77493 8.8681927 14.624321 -1
115.95744 -22.182995 21.489235 -1
115.6245 8.1460915 31.058285 -1
119.56299 10.208123 0.69742966 -1
119.99406 -1.1937855 0 -1
119.3963 -12.001526 -0.69742966 -1
117.79568 -22.854492 -1.3594428 -1
119.51083 10.245693 3.4908643 -1
119.96387 -0.81658077 2.8290563 -1
119.38432 -11.958228 2.0942888 -1
117.8028 -22.813208 1.434417 -1
0.1 0.1 0.1 -1
0.1 0.1 0.1 -1
0.1 0.1 0.1 -1
119.05226 9.8924799 -11.344498 -1
119.37543 9.4579439 -7.7495198 -1
119.6896 -1.7548668 -8.4451542 -1
118.98933 -12.569277 -9.1407118 -1
117.26833 -23.496386 -9.8008928 -1
119.45875 10.283235 -4.8848734 -1
119.8643 -1.1715722 -5.583735 -1
119.22839 -12.04771 -6.2803149 -1
117.59202 -22.878874 -6.9766822 -1
119.51783 10.540538 -2.0942888 -1
119.96516 -0.75377321 -2.7915766 -1
119.36236 -11.850829 -3.4908643 -1
117.77907 -22.595411 -4.1879396 -1
0.1 0.1 0.1 -1
0.1 0.1 0.1 -1
117.56687 -23.556202 4.8099556 -1
119.44395 9.190711 6.9766822 -1
117.44337 -22.637289 9.7265797 -1
118.80516 8.453536 14.624321 -1
115.8793 -22.587627 21.489235 -1
115.65223 7.7424369 31.058285 -1
119.59789 9.7907076 0.69742966 -1
119.98917 -1.6126357 0 -1
119.35368 -12.418223 -0.69742966 -1
117.71519 -23.265537 -1.3594428 -1
119.54587 9.8284597 3.4908643 -1
119.96029 -1.2353278 2.8290563 -1
119.34184 -12.374885 2.0942888 -1
117.72245 -23.224277 1.434417 -1
0.1 0.1 0.1 -1
0.1 0.1 0.1 -1
0.1 0.1 0.1 -1
119.08607 9.4768496 -11.344498 -1
119.40771 9.0411882 -7.7495198 -1
119.68274 -2.1726508 -8.4451542 -1
118.94473 -12.98455 -9.1407118 -1
117.1856 -23.905584 -9.8008928 -1
119.49392 9.8661823 -4.8848734 -1
119.85947 -1.5899695 -5.583735 -1
119.18562 -12.463821 -6.2803149 -1
117.51144 -23.289206 -6.9766822 -1
119.55389 10.123279 -2.0942888 -1
119.96179 -1.1725252 -2.7915766 -1
119.32026 -12.267409 -3.4908643 -1
117.69948 -23.006399 -4.1879396 -1
0.1 0.1 0.1 -1
0.1 0.1 0.1 -1
117.48393 -23.966444 4.8099556 -1
119.4753 8.7737179 6.9766822 -1
117.36364 -23.047104 9.7265797 -1
118.83395 8.0387774 14.624321 -1
115.79974 -22.991983 21.489235 -1
115.67855 7.3386884 31.058285 -1
119.63134 9.3731737 0.69742966 -1
119.9828 -2.0314662 0 -1
119.30961 -12.83477 -0.69742966 -1
117.63326 -23.676298 -1.3594428 -1
119.57945 9.4111071 3.4908643 -1
119.95525 -1.6540599 2.8290563 -1
119.29792 -12.79139 2.0942888 -1
117.64066 -23.635063 1.434417 -1
0.1 0.1 0.1 -1
0.1 0.1 0.1 -1
0.1 0.1 0.1 -1
119.11842 9.0611038 -11.344498 -1
119.43855 8.6243229 -7.7495198 -1
119.67443 -2.5904083 -8.4451542 -1
118.89868 -13.399666 -9.1407118 -1
117.10144 -24.314493 -9.8008928 -1
119.52763 9.4490108 -4.8848734 -1
119.8532 -2.0083475 -5.583735 -1
119.14138 -12.879781 -6.2803149 -1
117.42943 -23.699255 -6.9766822 -1
119.5885 9.7058964 -2.0942888 -1
119.95697 -1.5912628 -2.7915766 -1
119.27671 -12.683841 -3.4908643 -1
117.61845 -23.417107 -4.1879396 -1
0.1 0.1 0.1 -1
0.1 0.1 0.1 -1
117.39956 -24.376392 4.8099556 -1
119.5052 8.3566179 6.9766822 -1
117.28248 -23.45664 9.7265797 -1
118.86128 7.6239209 14.624321 -1
115.71879 -23.396061 21.489235 -1
115.70346 6.9348502 31.058285 -1
119.66333 8.9555254 0.69742966 -1
119.97498 -2.4502721 0 -1
119.26408 -13.251161 -0.69742966 -1
117.5499 -24.086771 -1.3594428 -1
119.61157 8.993639 3.4908643 -1
119.94874 -2.0727718 2.8290563 -1
119.25255 -13.20774 2.0942888 -1
117.55745 -24.045563 1.434417 -1
0.1 0.1 0.1 -1
0.1 0.1 0.1 -1
0.1 0.1 0.1 -1
119.14933 8.6452484 -11.344498 -1
119.46792 8.2073517 -7.7495198 -1
119.66466 -3.0081344 -8.4451542 -1
118.85118 -13.814618 -9.1407118 -1
117.01585 -24.723106 -9.8008928 -1
119.55988 9.031724 -4.8848734 -1
119.84545 -2.4267011 -5.583735 -1
119.0957 -13.295584 -6.2803149 -1
117.34599 -24.109016 -6.9766822 -1
119.62165 9.2883949 -2.0942888 -1
119.95068 -2.0099812 -2.7915766 -1
119.23171 -13.100117 -3.4908643 -1
117.536 -23.827528 -4.1879396 -1
0.1 0.1 0.1 -1
0.1 0.1 0.1 -1
117.31375 -24.786045 4.8099556 -1
119.53365 7.9394159 6.9766822 -1
117.19988 -23.865889 9.7265797 -1
118.88718 7.208971 14.624321 -1
115.63641 -23.799852 21.489235 -1
115.72696 6.5309272 31.058285 -1
119.69386 8.5377684 0.69742966 -1
119.9657 -2.8690479 0 -1
119.21709 -13.667389 -0.69742966 -1
117.46511 -24.49695 -1.3594428 -1
119.64223 8.5760622 3.4908643 -1
119.94077 -2.4914584 2.8290563 -1
119.20572 -13.623928 2.0942888 -1
117.47279 -24.455767 1.434417 -1
0.1 0.1 0.1 -1
0.1 0.1 0.1 -1
0.1 0.1 0.1 -1
119.17878 8.2292871 -11.344498 -1
119.49584 7.7902813 -7.7495198 -1
119.65343 -3.4258237 -8.4451542 -1
118.80224 -14.229403 -9.1407118 -1
116.92884 -25.131416 -9.8008928 -1
119.59068 8.6143274 -4.8848734 -1
119.83625 -2.8450248 -5.583735 -1
119.04856 -13.711225 -6.2803149 -1
117.26112 -24.518484 -6.9766822 -1
119.65334 8.8707809 -2.0942888 -1
119.94294 -2.4286749 -2.7915766 -1
119.18526 -13.516233 -3.4908643 -1
117.4521 -24.237661 -4.1879396 -1
0.1 0.1 0.1 -1
0.1 0.1 0.1 -1
117.22652 -25.195396 4.8099556 -1
119.56063 7.5221171 6.9766822 -1
117.11586 -24.274847 9.7265797 -1
118.91161 6.7939334 14.624321 -1
115.55263 -24.203354 21.489235 -1
115.74905 6.126925 31.058285 -1
119.72293 8.1199064 0.69742966 -1
119.95495 -3.2877889 0 -1
119.16866 -14.083451 -0.69742966 -1
117.37888 -24.90683 -1.3594428 -1
119.67145 8.1583805 3.4908643 -1
119.93134 -2.9101145 2.8290563 -1
119.15743 -14.03995 2.0942888 -1
117.38671 -24.865675 1.434417 -1
0.1 0.1 0.1 -1
0.1 0.1 0.1 -1
0.1 0.1 0.1 -1
119.20678 7.8132248 -11.344498 -1
119.52231 7.3731155 -7.7495198 -1
119.64074 -3.8434711 -8.4451542 -1
118.75185 -14.644012 -9.1407118 -1
116.84041 -25.539421 -9.8008928 -1
119.62003 8.196825 -4.8848734 -1
119.82559 -3.2633142 -5.583735 -1
118.99998 -14.126698 -6.2803149 -1
117.17482 -24.927652 -6.9766822 -1
119.68358 8.4530592 -2.0942888 -1
119.93373 -2.8473392 -2.7915766 -1
119.13735 -13.932185 -3.4908643 -1
117.36678 -24.647497 -4.1879396 -1
0.1 0.1 0.1 -1
0.1 0.1 0.1 -1
117.11995 -25.686211 4.8099556 -1
119.59109 7.0212383 6.9766822 -1
117.01315 -24.765207 9.7265797 -1
118.93903 6.2957792 14.624321 -1
115.45023 -24.687164 21.489235 -1
115.7737 5.642024 31.058285 -1
119.7559 7.6183424 0.69742966 -1
119.94012 -3.7902246 0 -1
119.10863 -14.582499 -0.69742966 -1
117.27352 -25.398287 -1.3594428 -1
119.70457 7.657032 3.4908643 -1
119.91811 -3.4124548 2.8290563 -1
119.09758 -14.538952 2.0942888 -1
117.28152 -25.357164 1.434417 -1
0.1 0.1 0.1 -1
0.1 0.1 0.1 -1
0.1 0.1 0.1 -1
119.23846 7.3138256 -11.344498 -1
119.55215 6.8723984 -7.7495198 -1
119.6236 -4.3445859 -8.4451542 -1
118.68946 -15.14131 -9.1407118 -1
116.7324 -26.028616 -9.8008928 -1
119.65331 7.6956916 -4.8848734 -1
119.81087 -3.7652082 -5.583735 -1
118.93976 -14.625038 -6.2803149 -1
117.06937 -25.418253 -6.9766822 -1
119.71794 7.9516568 -2.0942888 -1
119.92075 -3.34969 -2.7915766 -1
119.07794 -14.431103 -3.4908643 -1
117.26251 -25.138905 -4.1879396 -1
0.1 0.1 0.1 -1
0.1 0.1 0.1 -1
117.02958 -26.094879 4.8099556 -1
119.61487 6.6037445 6.9766822 -1
116.92599 -25.173508 9.7265797 -1
118.96028 5.8805666 14.624321 -1
115.36336 -25.090012 21.489235 -1
115.79269 5.2378645 31.058285 -1
119.78176 7.2002697 0.69742966 -1
119.92616 -4.2088709 0 -1
119.057 -14.998177 -0.69742966 -1
117.18415 -25.807491 -1.3594428 -1
119.73057 7.2391386 3.4908643 -1
119.90546 -3.8310263 2.8290563 -1
119.0461 -14.954591 2.0942888 -1
117.1923 -25.766397 1.434417 -1
0.1 0.1 0.1 -1
0.1 0.1 0.1 -1
0.1 0.1 0.1 -1
119.26326 6.8975611 -11.344498 -1
119.5754 6.4550414 -7.7495198 -1
119.6077 -4.7621236 -8.4451542 -1
118.63589 -15.555521 -9.1407118 -1
116.64083 -26.43593 -9.8008928 -1
119.67944 7.277977 -4.8848734 -1
119.797 -4.1834035 -5.583735 -1
118.88799 -15.040127 -6.2803149 -1
116.97993 -25.826746 -6.9766822 -1
119.74496 7.5337148 -2.0942888 -1
119.90833 -3.768271 -2.7915766 -1
119.02685 -14.846674 -3.4908643 -1
117.17405 -25.548073 -4.1879396 -1
0.1 0.1 0.1 -1
0.1 0.1 0.1 -1
116.93777 -26.503229 4.8099556 -1
119.63719 6.1861706 6.9766822 -1
116.83741 -25.581503 9.7265797 -1
118.98008 5.4652815 14.624321 -1
115.27507 -25.492552 21.489235 -1
115.81027 4.8336406 31.058285 -1
119.80616 6.7821097 0.69742966 -1
119.91074 -4.6274657 0 -1
119.00391 -15.413671 -0.69742966 -1
117.09335 -26.216385 -1.3594428 -1
119.7551 6.8211565 3.4908643 -1
119.89136 -4.2495513 2.8290563 -1
118.99317 -15.370049 2.0942888 -1
117.10165 -26.17532 1.434417 -1
0.1 0.1 0.1 -1
0.1 0.1 0.1 -1
0.1 0.1 0.1 -1
119.28661 6.4812126 -11.344498 -1
119.59721 6.0376062 -7.7495198 -1
119.59035 -5.1796036 -8.4451542 -1
118.58086 -15.969543 -9.1407118 -1
116.54784 -26.84292 -9.8008928 -1
119.70412 6.8601732 -4.8848734 -1
119.78167 -4.6015472 -5.583735 -1
118.83475 -15.455031 -6.2803149 -1
116.88907 -26.234924 -6.9766822 -1
119.77054 7.1156807 -2.0942888 -1
