# .PCD v0.7 - Point Cloud Data file format
VERSION 0.7
FIELDS x y z intensity
SIZE 4 4 4 4
TYPE F F F F
COUNT 1 1 1 1
WIDTH 1344
HEIGHT 1
VIEWPOINT 0 0 0 1 0 0 0
POINTS 1344
DATA ascii
-0.33676228 3.6579506 0.84787309 1
-0.33659449 3.6561279 0.71206212 1
-0.33502665 3.6390979 0.57855242 1
-0.33485481 3.6372316 0.44812858 2
-0.33426756 3.6308527 0.31745002 2
-0.33233166 3.6098249 0.18873312 1
-0.33273333 3.6141877 0.06192695 1
-0.11202638 1.260199 -0.33977726 92
-0.11990367 1.3488116 -0.31373614 91
-0.1512281 1.7011842 -0.3327201 26
-0.15566818 1.7511311 -0.27876019 36
-0.12040241 1.3544221 -0.1671651 10
-0.1049654 1.1807691 -0.10424293 13
-0.32185897 3.6206324 -0.19242516 3
-0.32137248 3.61516 -0.065100573 2
-0.3233225 3.6370959 0.97744381 1
-0.32526883 3.6589904 0.84787309 2
-0.32597604 3.6669459 0.71396607 1
-0.32359245 3.6401327 0.57855242 1
-0.32342649 3.6382656 0.44812858 2
-0.32197714 3.6219616 0.31658265 1
-0.32098946 3.610851 0.18873312 1
-0.3213774 3.6152153 0.06192695 1
-0.10971668 1.2797897 -0.34496471 91
-0.11566567 1.3491817 -0.31373614 91
-0.14504454 1.6918712 -0.33080792 21
-0.15100971 1.7614521 -0.28032628 28
-0.11699457 1.3646827 -0.16838528 10
-0.10125539 1.181093 -0.10424293 12
-0.31048286 3.6216257 -0.19242516 2
-0.31086761 3.6261137 -0.065279916 2
-0.31189466 3.6380937 0.97744381 1
-0.31293991 3.6502862 0.84562415 1
-0.31361586 3.6581707 0.71206212 1
-0.31299871 3.6509721 0.58011609 3
-0.31284276 3.649153 0.4493463 1
-0.31144777 3.6328812 0.31745002 2
-0.30964407 3.6118417 0.18873312 1
-0.30916426 3.606245 0.061756354 1
-0.10490086 1.270503 -0.34237099 96
-0.11062489 1.3398294 -0.31147903 85
-0.13972865 1.6923186 -0.33080792 20
-0.14953876 1.8111334 -0.2881566 26
-0.11270672 1.3650434 -0.16838528 10
-0.097544387 1.1814053 -0.10424293 12
-0.29910368 3.6225834 -0.19242516 3
-0.29865158 3.6171079 -0.065100573 3
-0.30046371 3.6390555 0.97744381 1
-0.30147067 3.6512511 0.84562415 1
-0.30373746 3.6787055 0.71586996 2
-0.29990184 3.6322503 0.57698876 1
-0.30056036 3.6402259 0.44812858 1
-0.29921347 3.6239133 0.31658265 1
-0.29747388 3.602844 0.18821318 1
-0.29783341 3.6071985 0.061756354 2
-0.10014448 1.2611989 -0.33977726 125
-0.10718628 1.3498818 -0.31373614 95
-0.13596529 1.7123185 -0.33463228 21
-0.14619353 1.8411311 -0.29285482 14
-0.1092034 1.3752849 -0.16960548 10
-0.093832418 1.181706 -0.10424293 12
-0.28693107 3.6135504 -0.19189653 4
-0.28649521 3.6080613 -0.064921238 2
-0.2882652 3.630352 0.97485799 1
-0.29076973 3.6618936 0.84787309 1
-0.28984779 3.6502826 0.71015823 1
-0.28927115 3.6430206 0.57855242 2
-0.28912279 3.6411521 0.44812858 2
-0.28782716 3.6248353 0.31658265 2
-0.28615373 3.6037607 0.18821318 1
-0.28649959 3.6081164 0.061756354 1
-0.096181825 1.2615073 -0.33977726 128
-0.1036856 1.3599256 -0.31599322 118
-0.13058521 1.7127372 -0.33463228 18
-0.13890705 1.8218852 -0.28972268 57
-0.10639138 1.3954144 -0.17204584 8
-0.090876825 1.1919276 -0.10511892 11
-0.27557737 3.614434 -0.19189653 4
-0.27591887 3.6189129 -0.065100573 3
-0.27759308 3.6408715 0.97744381 2
-0.27926412 3.6627889 0.84787309 1
-0.27912501 3.660964 0.71206212 1
-0.27707398 3.634063 0.57698876 1
-0.27692777 3.6321456 0.44691083 2
-0.27568063 3.6157882 0.31571531 1
-0.27483082 3.6046419 0.18821318 1
-0.27516297 3.6089988 0.061756354 1
-0.09151426 1.252171 -0.33718354 144
-0.098702662 1.3505286 -0.31373614 132
-0.12591931 1.7229284 -0.33654448 17
-0.13390265 1.8321629 -0.29128873 11
-0.10200704 1.3957417 -0.17204584 8
-0.087857932 1.2021422 -0.10599491 8
-0.26349309 3.6053224 -0.19136789 5
-0.26454839 3.6197619 -0.065100573 2
-0.26544949 3.6320915 0.97485799 1
-0.26704556 3.6539302 0.84562415 1
-0.26833794 3.6716137 0.71396607 1
-0.26637581 3.6447663 0.57855242 3
-0.2662392 3.6428969 0.44812858 1
-0.26504612 3.6265721 0.31658265 2
-0.26350516 3.6054876 0.18821318 1
-0.26382363 3.6098454 0.061756354 1
-0.086906314 1.2428181 -0.33458984 132
-0.095818505 1.3702685 -0.31825033 121
-0.11982127 1.7135239 -0.33463228 19
-0.12676819 1.8128694 -0.2881566 29
-0.098314047 1.4059564 -0.17326602 9
-0.083385982 1.1924751 -0.10511892 9
-0.25216535 3.6061325 -0.19136789 6
-0.25247782 3.6106012 -0.064921238 4
-0.25471148 3.6425438 0.97744381 2
-0.25624481 3.6644714 0.84787309 1
-0.25611711 3.6626453 0.71206212 1
-0.25423515 3.6357322 0.57698876 1
-0.25410101 3.6338139 0.44691083 2
-0.25295666 3.617449 0.31571531 1
-0.25217691 3.6062977 0.18821318 1
-0.2524817 3.6106563 0.061756354 1
-0.084288307 1.2623577 -0.33977726 150
-0.090215154 1.351122 -0.31373614 125
-0.11182177 1.6747172 -0.32698354 21
-0.11975627 1.7935494 -0.28502446 24
-0.093896627 1.4062582 -0.17326602 10
-0.079639301 1.1927311 -0.10511892 9
-0.24016982 3.5969429 -0.19083925 7
-0.24179967 3.6213527 -0.065100573 3
-0.24262328 3.6336877 0.97485799 1
-0.24408212 3.6555359 0.84562415 2
-0.24460933 3.6634319 0.71206212 1
-0.24346997 3.646368 0.57855242 3
-0.24334508 3.6444979 0.44812858 1
-0.2422546 3.628166 0.31658265 2
-0.24018084 3.5971079 0.18769327 1
-0.24113725 3.6114316 0.061756354 1
-0.082774661 1.3011694 -0.35015213 132
-0.084114566 1.3222319 -0.30696484 133
-0.10655995 1.6750603 -0.32698354 20
-0.11600219 1.8234868 -0.28972268 12
-0.090738535 1.4263568 -0.17570639 8
-0.076524273 1.2029169 -0.10599491 10
-0.22886853 3.5976799 -0.19083925 7
-0.22978692 3.6121161 -0.064921238 4
-0.23181982 3.6440723 0.97744381 1
-0.23197812 3.6465607 0.84337515 1
-0.23247588 3.6543851 0.71015823 1
-0.23075925 3.6274006 0.57542509 1
-0.23126423 3.6353388 0.44691083 2
-0.23022273 3.6189668 0.31571531 1
-0.22951303 3.607811 0.18821318 1
-0.22979043 3.6121714 0.061756354 1
-0.077520795 1.2821426 -0.34496471 97
-0.079960249 1.3224896 -0.30696484 134
-0.10188945 1.6851844 -0.32889572 22
-0.1078887 1.7844079 -0.28345841 32
-0.086856067 1.436542 -0.17692657 8
-0.072744824 1.2031513 -0.10599491 11
-0.21756497 3.598381 -0.19083925 7
-0.218438 3.6128201 -0.064921238 3
-0.21978752 3.6351404 0.97485799 1
-0.22110905 3.6569974 0.84562415 1
-0.22217911 3.6746957 0.71396607 2
-0.21995841 3.6379669 0.57698876 2
-0.21984236 3.6360474 0.44691083 1
-0.21885228 3.6196723 0.31571531 2
-0.21817765 3.6085141 0.18821318 1
-0.21844134 3.6128755 0.061756354 1
-0.073492445 1.2823799 -0.34496471 63
-0.074690357 1.3032824 -0.30245066 89
-0.094348408 1.6462985 -0.32124698 23
-0.10341249 1.8044589 -0.28659055 22
-0.083478376 1.4566258 -0.17936693 8
-0.069534622 1.2133192 -0.1068709 10
-6.8562641 119.6359 -6.3436871 -1
-0.20708694 3.6134887 -0.064921238 5
-0.20836632 3.635813 0.97485799 1
-0.20961918 3.6576741 0.84562415 1
-0.20951025 3.6557736 0.71015823 1
-0.20796321 3.6287789 0.57542509 1
-0.20841831 3.6367199 0.44691083 2
-0.20690969 3.6103959 0.31484795 1
-0.20626873 3.5992117 0.18769327 1
-0.20651802 3.6035619 0.061585754 1
-0.068418816 1.2633172 -0.33977726 95
-0.070595607 1.3035105 -0.30245066 53
-0.088645145 1.6367856 -0.31933481 27
-0.096140765 1.7751883 -0.28189233 19
-0.078365102 1.4469701 -0.17814675 7
-0.066799946 1.2334256 -0.10862288 9
-6.4803834 119.65685 -6.3436871 -1
-0.19573382 3.6141214 -0.064921238 4
-0.19694307 3.6364496 0.97485799 1
-0.19760031 3.6485851 0.84337515 1
-0.19802429 3.6564138 0.71015823 1
-0.1970962 3.639277 0.57698876 3
-0.1969922 3.6373568 0.44691083 2
-0.19610505 3.620976 0.31571531 2
-0.19550052 3.6098137 0.18821318 1
-0.19519611 3.6041927 0.061585754 1
-0.065925598 1.2924616 -0.34755844 74
-0.067492709 1.3231845 -0.30696484 65
-0.084002614 1.6468588 -0.32124698 30
-0.089053988 1.7458903 -0.27719411 30
-0.074324541 1.4571216 -0.17936693 7
-0.062417243 1.2236809 -0.10774689 9
-6.1044388 119.67662 -6.3436871 -1
-0.18437877 3.6147184 -0.064921238 6
-0.18551788 3.6370504 0.97485799 2
-0.18663335 3.6589189 0.84562415 1
-0.18653637 3.6570179 0.71015823 1
-0.18515897 3.6300142 0.57542509 1
-0.18556416 3.6379578 0.44691083 1
-0.18472846 3.6215742 0.31571531 1
-0.18365029 3.6004367 0.18769327 1
-0.18387225 3.6047883 0.061585754 1
-0.061403215 1.2830156 -0.34496471 73
-0.063335478 1.32339 -0.30696484 116
-0.077890016 1.627506 -0.31742263 29
-0.084512964 1.765892 -0.28032628 32
-0.07022097 1.4672618 -0.18058713 7
-0.059525035 1.2437712 -0.10949887 9
-0.095951274 2.0048947 -0.10625675 12
-0.17254394 3.605293 -0.064741895 11
-0.17362906 3.6279664 0.97227216 1
-0.17467181 3.6497545 0.84337515 1
-0.17457731 3.6477799 0.70825434 1
-0.17422621 3.6404436 0.57698876 2
-0.17413428 3.6385229 0.44691083 1
-0.17382629 3.6320875 0.31658265 2
-0.17281568 3.610971 0.18821318 1
-0.1725466 3.6053481 0.061585754 1
-0.056940835 1.273554 -0.34237099 69
-0.059177618 1.3235825 -0.30696484 99
-0.072338268 1.6179371 -0.31551045 32
-0.078523695 1.7562821 -0.27876019 65
-0.06516777 1.4575598 -0.17936693 7
-0.056507204 1.2638553 -0.11125086 6
-0.090098277 2.0151622 -0.10678539 10
-0.16166334 3.6158056 -0.064921238 14
-0.1626621 3.6381443 0.97485799 1
-0.16320492 3.6502852 0.84337515 1
-0.16355512 3.6581178 0.71015823 2
-0.16234741 3.6311059 0.57542509 1
-0.16270268 3.6390519 0.44691083 1
-0.16152498 3.612711 0.31484795 1
-0.1610246 3.6015193 0.18769327 1
-0.16166581 3.6158609 0.061756354 1
-0.052538518 1.2640772 -0.33977726 84
-0.054210071 1.3042948 -0.30245066 69
-0.066847414 1.6083493 -0.31359825 24
-0.072185509 1.736784 -0.27562806 33
-0.061824895 1.4875075 -0.18302749 9
-0.053363759 1.2839324 -0.11300284 7
-0.083352342 2.0054581 -0.10625675 10
-0.15030317 3.6162956 -0.064921238 8
-0.1508306 3.6289856 0.97227216 1
-0.15173644 3.65078 0.84337515 1
-0.15206201 3.6586134 0.71015823 1
-0.15175949 3.6513348 0.57855242 3
-0.1508573 3.6296279 0.44569308 2
-0.15017453 3.6132007 0.31484795 2
-0.15012403 3.6119854 0.18821318 1
-0.14989026 3.6063612 0.061585754 1
-0.048567049 1.264236 -0.33977726 77
-0.050486218 1.3141934 -0.30470774 107
-0.060663927 1.5791267 -0.30786172 24
-0.067108035 1.7468715 -0.27719411 14
-0.057151455 1.4876944 -0.18302749 11
-0.048947506 1.2741396 -0.11212684 10
-0.077051602 2.0057099 -0.10625675 9
-0.1385577 3.6067591 -0.064741895 11
-0.13942908 3.6294415 0.97227216 2
-0.14026643 3.6512387 0.84337515 1
-0.14094427 3.6688831 0.71206212 2
-0.13915029 3.6221845 0.57386142 1
-0.13945377 3.630084 0.44569308 1
-0.1388226 3.6136546 0.31484795 1
-0.13839255 3.6024601 0.18769327 1
-0.13855982 3.6068141 0.061585754 1
-0.0445951 1.2643824 -0.33977726 75
-0.045670539 1.2948737 -0.30019355 83
-0.055702664 1.5793095 -0.30786172 25
-0.061271619 1.7372032 -0.27562806 20
-0.053526998 1.5176239 -0.18668804 12
-0.045295574 1.2842424 -0.11300284 12
-0.071102105 2.0159221 -0.10678539 8
-0.12722607 3.6071765 -0.064741895 7
-0.12802619 3.6298618 0.97227216 1
-0.12845162 3.6419234 0.84112614 1
-0.12907141 3.6594968 0.71015823 1
-0.12846649 3.6423454 0.57698876 3
-0.1283987 3.6404238 0.44691083 1
-0.1274693 3.6140728 0.31484795 2
-0.12707444 3.6028771 0.18769327 1
-0.12722802 3.6072316 0.061585754 1
-0.040622711 1.2645162 -0.33977726 69
-0.042540755 1.3242216 -0.30696484 73
-0.051056009 1.589287 -0.30977389 27
-0.055496614 1.7275156 -0.27406198 37
-0.049715046 1.5475451 -0.1903486 14
-0.041900489 1.3042912 -0.11475482 12
-0.064768553 2.0161355 -0.10678539 9
-0.11621422 3.6175516 -0.064921238 12
-0.11693219 3.6399009 0.97485799 1
-0.11732242 3.6520479 0.84337515 2
-0.11788937 3.6696961 0.71206212 3
-0.11670598 3.6328592 0.57542509 1
-0.11696137 3.6408091 0.44691083 2
-0.11611475 3.6144555 0.31484795 1
-0.11575505 3.6032586 0.18769327 1
-0.11557392 3.5976202 0.061415158 1
-0.036929693 1.2742913 -0.34237099 66
-0.038098179 1.3146108 -0.30470774 66
-0.045209859 1.5600055 -0.30403733 24
-0.048638653 1.6783191 -0.26623166 37
-0.045140572 1.5576148 -0.19156878 14
-0.03866845 1.3342886 -0.11738279 10
-0.058145091 2.0063472 -0.10625675 8
-0.10455915 3.6079047 -0.064741895 8
-0.10521671 3.6305945 0.97227216 1
-0.10556635 3.6426587 0.84112614 1
-0.10579134 3.6504223 0.70825434 1
-0.10557857 3.6430807 0.57698876 2
-0.10523534 3.631237 0.44569308 1
-0.10475905 3.6148024 0.31484795 2
-0.10443453 3.6036043 0.18769327 1
-0.10456075 3.6079597 0.061585754 1
-0.032427333 1.2550919 -0.33718354 54
-0.034219641 1.3244628 -0.30696484 60
-0.040055227 1.5503277 -0.30212516 21
-0.042345453 1.6389704 -0.25996739 17
-0.041272365 1.5974368 -0.1964495 13
-0.034476474 1.3344035 -0.11738279 14
-0.051841691 2.0065198 -0.10625675 9
-0.093224086 3.6082153 -0.064741895 12
-0.094059862 3.6405637 0.97485799 1
-0.094122089 3.6429725 0.84112614 1
-0.094322696 3.6507368 0.70825434 1
-0.093622789 3.623647 0.57386142 1
-0.093826972 3.6315498 0.44569308 2
-0.093402319 3.6151137 0.31484795 1
-0.092855044 3.5939317 0.18717334 1
-0.093225516 3.6082706 0.061585754 1
-0.027388645 1.2069112 -0.32421494 58
-0.030058555 1.3245637 -0.30696484 40
-0.034293793 1.5111941 -0.29447642 33
-0.036748126 1.6193472 -0.25683522 24
-0.03670403 1.617404 -0.19888987 12
-0.030962164 1.3643821 -0.12001076 11
-0.045537777 2.0066729 -0.10625675 10
-0.081661262 3.5984945 -0.064562552 8
-0.082403094 3.6311839 0.97227216 1
-0.08267691 3.6432502 0.84112614 1
-0.083075844 3.6608295 0.71015823 2
-0.082686491 3.6436722 0.57698876 2
-0.082417674 3.6318266 0.44569308 1
-0.082044661 3.6153893 0.31484795 2
-0.081790499 3.6041894 0.18769327 1
-0.081889354 3.6085455 0.061585754 1
-0.023030568 1.1780235 -0.31643379 40
-0.026468435 1.3538718 -0.31373614 67
-0.029354217 1.5014808 -0.29256421 21
-0.031467572 1.6095799 -0.25526917 44
-0.031816639 1.6274347 -0.20011005 12
-0.027065111 1.384392 -0.12176275 9
-0.039038222 1.9968219 -0.10572811 11
-0.070355877 3.5987334 -0.064562552 11
-0.070995003 3.6314249 0.97227216 1
-0.07142137 3.6532338 0.84337515 1
-0.071382731 3.6512573 0.70825434 1
-0.070853047 3.6241639 0.57386142 1
-0.071007572 3.6320677 0.44569308 2
-0.070686191 3.6156292 0.31484795 1
-0.070467219 3.6044285 0.18769327 1
-0.070552386 3.6087852 0.061585754 1
-0.018967221 1.1684369 -0.31384006 52
-0.021978689 1.3539522 -0.31373614 43
-0.024534278 1.511384 -0.29447642 30
-0.026290147 1.6195507 -0.25683522 33
-0.026419695 1.6275313 -0.20011005 15
-0.022312468 1.374514 -0.12088675 19
-0.032416306 1.9969404 -0.10572811 14
-0.058583941 3.6089439 -0.064741895 8
-0.058952373 3.6316404 0.97227216 1
-0.058990117 3.6339655 0.83887714 1
-0.059433673 3.6612897 0.71015823 2
-0.059155121 3.6441302 0.57698876 2
-0.058962807 3.6322832 0.44569308 1
-0.058695946 3.6158438 0.31484795 1
-0.058352027 3.5946574 0.18717334 1
-0.058422554 3.5990019 0.061415158 1
-0.015296381 1.1684906 -0.31384006 42
-0.017087432 1.3053091 -0.30245066 57
-0.019143609 1.4623805 -0.28491548 29
-0.021460619 1.6393769 -0.25996739 35
-0.021306533 1.6276063 -0.20011005 15
-0.018385381 1.4044594 -0.12351473 9
-0.02588116 1.977062 -0.10467083 17
-0.047245841 3.6091101 -0.064741895 15
-0.047542967 3.6318076 0.97227216 2
-0.047828492 3.6536188 0.84337515 1
-0.047674112 3.6418259 0.70635039 1
-0.047447901 3.6245458 0.57386142 1
-0.047681302 3.6423752 0.44691083 2
-0.047336169 3.6160102 0.31484795 2
-0.04718953 3.6048086 0.18769327 1
-0.047246564 3.6091654 0.061585754 1
-0.01162539 1.168533 -0.31384006 41
-0.013277349 1.3345807 -0.30922195 43
-0.014354026 1.4428034 -0.28109112 72
-0.016015504 1.6098078 -0.25526917 24
-0.016094422 1.6177404 -0.19888987 33
-0.013873958 1.3945491 -0.12263873 18
-0.019669918 1.9771335 -0.10467083 18
-0.035807807 3.5992429 -0.064562552 11
-0.036133088 3.6319389 0.97227216 2
-0.036253158 3.6440077 0.84112614 1
-0.036330424 3.6517744 0.70825434 1
-0.036257356 3.6444299 0.57698876 3
-0.036139484 3.6325819 0.44569308 2
-0.035975922 3.6161411 0.31484795 1
-0.035864472 3.604939 0.18769327 1
-0.035808355 3.599298 0.061415158 1
-0.00775707 1.1395911 -0.30605891 38
-0.0091508925 1.3443575 -0.31147903 36
-0.0099548846 1.4624718 -0.28491548 25
-0.011226982 1.6493556 -0.26153344 34
-0.011282304 1.6574831 -0.20377061 14
-0.0096962079 1.4244698 -0.1252667 29
-0.81566566 119.82943 -6.3436871 -1
-0.024500292 3.5993376 -0.064562552 19
-0.024657106 3.622375 0.96968633 1
-0.024871334 3.6538472 0.84337515 2
-0.024791056 3.6420536 0.70635039 1
-0.024673423 3.6247723 0.57386142 1
-0.024727233 3.6326776 0.44569308 2
-0.024615319 3.6162362 0.31484795 3
-0.024539066 3.6050339 0.18769327 1
-0.024568725 3.609391 0.061585754 1
-0.0041769068 1.1396098 -0.30605891 42
-0.0049631367 1.3541214 -0.31373614 34
-0.0053243763 1.4526806 -0.2830033 54
-0.0060815304 1.6592593 -0.26309952 7
-0.006111498 1.6674355 -0.20499079 14
-0.0052575748 1.4344547 -0.1261427 7
-0.43920699 119.8314 -6.3436871 -1
-0.013192537 3.5993969 -0.064562552 15
-0.013347786 3.6417542 0.97485799 1
-0.01339233 3.6539073 0.84337515 1
-0.013385084 3.6519306 0.70825434 1
-0.013358165 3.6445858 0.57698876 4
-0.013314737 3.6327374 0.44569308 2
-0.013254476 3.6162958 0.31484795 1
-0.013213416 3.6050932 0.18769327 1
-0.013192739 3.599452 0.061415158 1
-0.00059670227 1.1396173 -0.30605891 36
-0.00070902106 1.3541304 -0.31373614 37
-0.00076576619 1.4625056 -0.28491548 28
-0.0008636206 1.6493937 -0.26153344 50
-0.0008782699 1.6773719 -0.20621097 10
-0.00075629959 1.4444257 -0.12701869 12
-0.062743992 119.83219 -6.3436871 -1
-0.0018898875 3.6094189 -0.064741895 32
-0.0019017728 3.6321182 0.97227216 1
-0.0019131942 3.6539314 0.84337515 1
-0.0019070189 3.6421375 0.70635039 1
-0.0018979702 3.6248558 0.57386142 1
-0.0019021095 3.6327612 0.44569308 1
-0.0018935007 3.6163197 0.31484795 3
-0.0018824061 3.5951304 0.18717334 1
-0.0018846812 3.5994756 0.061415158 2
0.0029835082 1.1396135 -0.30605891 36
0.0035961103 1.3736098 -0.31825033 31
0.0038288268 1.4625008 -0.28491548 30
0.0042663845 1.6296351 -0.2584013 30
0.0043913447 1.6773663 -0.20621097 10
0.0038597316 1.4743055 -0.12964666 10
0.0030326231 1.1583741 -0.061322305 23
0.0094232513 3.5994086 -0.064562552 24
0.0095088538 3.6321063 0.97227216 1
0.0095149418 3.6344318 0.83887714 1
0.0095607853 3.6519425 0.70825434 1
0.0095415562 3.6445978 0.57698876 2
0.0095365224 3.6426749 0.44691083 1
0.0094674928 3.6163077 0.31484795 1
0.0094381645 3.6051049 0.18769327 1
0.0094233956 3.5994637 0.061415158 1
0.0065080645 1.129941 -0.30346519 39
0.007574752 1.315141 -0.30470774 49
0.0083668493 1.4526662 -0.2830033 29
0.0093291197 1.6197373 -0.25683522 53
0.0096037509 1.6674191 -0.20499079 11
0.0084339986 1.4643247 -0.12877066 9
0.0066717416 1.1583588 -0.061322305 20
0.020788649 3.6093595 -0.064741895 25
0.020919386 3.6320586 0.97227216 1
0.02104502 3.6538713 0.84337515 1
0.020977093 3.6420777 0.70635039 1
0.020877559 3.6247962 0.57386142 1
0.020980258 3.6426268 0.44691083 1
0.020828392 3.6162601 0.31484795 2
0.02076387 3.6050575 0.18769327 1
0.02073138 3.5994165 0.061415158 1
0.01005784 1.1299149 -0.30346519 32
0.011012636 1.2371782 -0.28665099 33
0.012843118 1.4428177 -0.28109112 35
0.014593445 1.6394523 -0.25996739 23
0.015018738 1.6872305 -0.20743115 10
0.013122929 1.4742522 -0.12964666 18
0.010221908 1.1483464 -0.060793664 18
0.03203867 3.5992785 -0.064562552 17
0.032329712 3.6319749 0.97227216 1
0.032437142 3.6440437 0.84112614 1
0.032418896 3.6419938 0.70635039 1
0.032352984 3.6345892 0.57542509 3
0.032423783 3.6425431 0.44691083 1
0.032189086 3.6161768 0.31484795 1
0.032000482 3.5949886 0.18717334 1
0.032039158 3.5993335 0.061415158 1
0.013491214 1.1202207 -0.30087146 43
0.014078065 1.1689488 -0.27085134 28
0.017612198 1.4623997 -0.28491548 31
0.020219611 1.678902 -0.26623166 75
0.02043877 1.6970996 -0.20865133 8
0.017874319 1.4841645 -0.13052265 9
0.013829488 1.1483088 -0.060793664 16
0.043345958 3.59916 -0.064562552 20
0.043856051 3.6415145 0.97485799 1
0.043885063 3.6439238 0.84112614 1
0.043978598 3.6516902 0.70825434 1
0.043652263 3.6245935 0.57386142 1
0.043747462 3.6324983 0.44569308 1
0.043549463 3.6160579 0.31484795 2
0.043414555 3.604856 0.18769327 1
0.04346703 3.6092129 0.061585754 1
0.017303701 1.1394861 -0.30605891 30
0.017602431 1.159158 -0.26859424 36
0.022057332 1.4525229 -0.2830033 33
0.025493929 1.6788301 -0.26623166 33
0.025770256 1.697027 -0.20865133 9
0.022536863 1.4841011 -0.13052265 10
0.017588558 1.1582445 -0.061322305 16
0.054652821 3.5990062 -0.064562552 13
0.055149294 3.6317 0.97227216 1
0.055332553 3.6437681 0.84112614 1
0.055599548 3.66135 0.71015823 2
0.055338964 3.6441901 0.57698876 2
0.055159058 3.6323428 0.44569308 1
0.054909412 3.6159031 0.31484795 1
0.054739311 3.6047018 0.18769327 1
0.054653656 3.5990613 0.061415158 1
0.020529456 1.1201137 -0.30087146 40
0.02106542 1.1493567 -0.26633716 22
0.026980186 1.472074 -0.28682768 38
0.030406019 1.6589919 -0.26309952 38
0.030919608 1.687014 -0.20743115 7
0.027381731 1.4939828 -0.13139865 7
0.021227198 1.1581835 -0.061322305 15
0.065959141 3.5988166 -0.064562552 19
0.066381313 3.6218507 0.96968633 1
0.066958055 3.6533184 0.84337515 2
0.066921823 3.6513419 0.70825434 1
0.066425242 3.6242476 0.57386142 1
0.066570111 3.6321516 0.44569308 1
0.066268817 3.6157129 0.31484795 2
0.06588053 3.5945272 0.18717334 1
0.065960154 3.5988717 0.061415158 1
0.024048289 1.1200438 -0.30087146 27
0.024467001 1.1395451 -0.26408005 53
0.032026097 1.4916084 -0.29065204 38
0.034981705 1.6292652 -0.2584013 39
0.036219358 1.6869086 -0.20743115 7
0.032288905 1.5038487 -0.13227464 7
0.024651268 1.1481273 -0.060793664 16
0.077264816 3.5985916 -0.064562552 13
0.078174062 3.6409395 0.97485799 1
0.078225784 3.6433485 0.84112614 1
0.078181773 3.6412988 0.70635039 1
0.078022823 3.6338959 0.57542509 3
0.078193568 3.6418478 0.44691083 2
0.077627569 3.6154869 0.31484795 1
0.077172726 3.5943024 0.18717334 1
0.077051371 3.5886505 0.061244562 1
0.027566886 1.1199627 -0.30087146 26
0.027567428 1.1199846 -0.25956586 24
0.036953487 1.501313 -0.29256421 30
0.039613951 1.6094 -0.25526917 30
0.041762978 1.6967087 -0.20865133 7
0.037013218 1.5037398 -0.13227464 8
0.028503811 1.1580273 -0.061322305 16
0.088569723 3.5983312 -0.064562552 22
0.089136608 3.621362 0.96968633 1
0.089671291 3.6430848 0.84112614 2
0.090103976 3.6606634 0.71015823 2
0.089195602 3.6237588 0.57386142 1
0.089390129 3.6316617 0.44569308 2
0.088985555 3.6152251 0.31484795 2
0.088464156 3.5940423 0.18717334 1
0.088571079 3.5983863 0.061415158 1
0.031353187 1.1295246 -0.30346519 26
0.030815508 1.1101543 -0.25730878 22
0.040852752 1.4717544 -0.28682768 33
0.044669826 1.6092676 -0.25526917 27
0.04736853 1.7064906 -0.20987152 9
0.041737165 1.5036161 -0.13227464 8
0.031864632 1.1479498 -0.060793664 18
0.099873759 3.5980351 -0.064562552 12
0.100513 3.6210642 0.96968633 1
0.10084555 3.633045 0.83887714 1
0.10105903 3.6407356 0.70635039 1
0.10030546 3.6135874 0.57229781 1
0.10107428 3.6412847 0.44691083 2
0.10034266 3.6149278 0.31484795 1
0.099754721 3.5937467 0.18717334 1
0.099597856 3.5880954 0.061244562 1
0.034304924 1.1101142 -0.29827777 35
0.034002099 1.1003147 -0.25505167 23
0.03729048 1.2067274 -0.23519869 41
0.049725261 1.6091193 -0.25526917 31
0.052422818 1.6964128 -0.20865133 9
0.04676839 1.5134344 -0.13315062 9
0.035470858 1.1478441 -0.060793664 18
0.11117681 3.5977037 -0.064562552 20
0.11218676 3.6303859 0.97227216 1
0.11286051 3.6521885 0.84337515 2
0.11279945 3.6502125 0.70825434 1
0.11196244 3.6231267 0.57386142 1
0.11190004 3.6211076 0.44447535 1
0.11169878 3.6145947 0.31484795 3
0.1110443 3.5934155 0.18717334 1
0.11117851 3.5977588 0.061415158 2
0.038449533 1.1293054 -0.30346519 34
0.036795683 1.0807298 -0.25053748 27
0.038409378 1.1281259 -0.21990122 35
0.054108057 1.5892134 -0.25213704 25
0.05741426 1.6863202 -0.20743115 9
0.051522747 1.51328 -0.13315062 11
0.039076738 1.1477269 -0.060793664 21
0.12247876 3.5973365 -0.064562552 14
0.12326268 3.6203611 0.96968633 1
0.12367051 3.6323395 0.83887714 1
0.12426636 3.6498401 0.70825434 1
0.12368035 3.6326284 0.57542509 3
0.12361325 3.6306579 0.44569308 1
0.12305379 3.6142259 0.31484795 1
0.12233278 3.593049 0.18717334 1
0.12214041 3.587399 0.061244562 1
0.041638207 1.1195278 -0.30087146 34
0.040914863 1.1000794 -0.25505167 31
0.041223675 1.1083823 -0.21607685 23
0.059100442 1.5890356 -0.25213704 32
0.062342804 1.6762131 -0.20621097 9
0.056276593 1.5131106 -0.13315062 8
0.043053377 1.1575776 -0.061322305 22
0.13377951 3.5969341 -0.064562552 20
0.13463575 3.619956 0.96968633 1
0.1358055 3.6514072 0.84337515 2
0.13536717 3.6396215 0.70635039 1
0.13472486 3.6223516 0.57386142 1
0.13538758 3.6401703 0.44691083 1
0.13440759 3.6138215 0.31484795 2
0.13324888 3.5826674 0.18665341 1
0.13378155 3.5969892 0.061415158 1
0.045544364 1.1290414 -0.30346519 31
0.043977998 1.0902114 -0.25279456 26
0.045496799 1.1278623 -0.21990122 18
0.06528651 1.6184478 -0.25683522 12
0.068808615 1.7057606 -0.20987152 7
0.061029885 1.5129263 -0.13315062 8
0.047494791 1.1773925 -0.062379587 23
0.14507893 3.5964961 -0.064562552 13
0.14600749 3.6195152 0.96968633 2
0.14649057 3.6314909 0.83887714 1
0.14719637 3.6489873 0.70825434 1
0.14690033 3.6416485 0.57698876 3
0.14642276 3.6298096 0.44569308 1
0.14535852 3.6034272 0.31398061 1
0.14490601 3.5922093 0.18717334 1
0.14508115 3.5965512 0.061415158 1
0.049091119 1.1288928 -0.30346519 22
0.047826014 1.0998006 -0.25505167 36
0.049466286 1.1375201 -0.2218134 14
0.069941595 1.6083674 -0.25526917 29
0.074598275 1.715452 -0.2110917 6
0.065782577 1.5127271 -0.13315062 9
0.050759599 1.1672609 -0.061850946 23
0.15637691 3.5960226 -0.064562552 22
0.15779747 3.6286895 0.97227216 1
0.15832183 3.6407473 0.84112614 2
0.15823276 3.6386991 0.70635039 1
0.15748195 3.6214337 0.57386142 1
0.15782541 3.6293318 0.44569308 1
0.15711109 3.6129055 0.31484795 2
0.15619053 3.5917366 0.18717334 1
0.15637931 3.5960774 0.061415158 1
0.052187502 1.1190857 -0.30087146 29
0.051280897 1.0996449 -0.25505167 23
0.052582424 1.1275542 -0.21990122 19
0.074994072 1.6081398 -0.25526917 12
0.08091186 1.7350382 -0.21353208 6
0.071462698 1.5324146 -0.13490261 6
0.053961217 1.1571205 -0.061322305 27
0.16767336 3.5955136 -0.064562552 16
0.16874655 3.6185265 0.96968633 1
0.16930486 3.6304986 0.83887714 1
0.16966327 3.6381841 0.70635039 1
0.16931833 3.6307874 0.57542509 3
0.16968885 3.6387329 0.44691083 2
0.16846058 3.6123941 0.31484795 1
0.16793872 3.6012037 0.18769327 1
0.16767593 3.5955684 0.061415158 1
0.055222753 1.1092705 -0.29827777 38
0.054735277 1.0994784 -0.25505167 34
0.056612514 1.1371868 -0.2218134 19
0.079554737 1.5980319 -0.25370309 26
0.086362235 1.7347754 -0.21353208 8
0.076771863 1.5421318 -0.13577861 7
0.058092665 1.1669189 -0.061850946 26
0.17946529 3.604955 -0.064741895 26
0.18059394 3.6276264 0.97227216 1
0.18167852 3.6494124 0.84337515 2
0.18206835 3.657243 0.71015823 2
0.18023284 3.6203728 0.57386142 1
0.1806259 3.6282685 0.44569308 1
0.17980841 3.6118472 0.31484795 2
0.17925139 3.6006584 0.18769327 1
0.17946804 3.6050103 0.061585754 1
0.059925284 1.1283696 -0.30346519 37
0.058897622 1.109019 -0.25730878 39
0.060903795 1.1467944 -0.22372559 21
0.08537735 1.6076219 -0.25526917 11
0.092114478 1.7344794 -0.21353208 8
0.082413629 1.5518162 -0.13665459 9
0.062491577 1.1766918 -0.062379587 25
0.19035828 3.5843713 -0.064383216 20
0.19262259 3.6270075 0.97227216 1
0.19274591 3.6293297 0.83887714 1
0.19367456 3.6468158 0.70825434 1
0.19276124 3.6296184 0.57542509 3
0.19265668 3.6276495 0.44569308 1
0.19178472 3.6112311 0.31484795 1
0.190661 3.5900717 0.18717334 1
0.19089144 3.5944107 0.061415158 1
0.06292738 1.1185331 -0.30087146 37
0.062381413 1.1088285 -0.25730878 26
0.067262925 1.1955974 -0.23328651 48
0.090427414 1.6073458 -0.25526917 30
0.097563043 1.7341815 -0.21353208 8
0.088407472 1.5714413 -0.13840657 7
0.066187948 1.1764897 -0.062379587 26
0.20217957 3.5937383 -0.064562552 32
0.2034736 3.6167397 0.96968633 1
0.20469414 3.6384346 0.84112614 1
0.20568183 3.6559911 0.71015823 2
0.20360826 3.6191335 0.57386142 1
0.20405231 3.6270263 0.44569308 1
0.2025692 3.6006641 0.31398061 2
0.20193858 3.5894549 0.18717334 1
0.20218265 3.5937934 0.061415158 1
0.066441044 1.11833 -0.30087146 41
0.065864585 1.1086271 -0.25730878 44
0.089064397 1.4991243 -0.29256421 33
0.096062332 1.616913 -0.25683522 50
0.10301065 1.7338665 -0.21353208 9
0.09393464 1.5810999 -0.13928257 8
0.069291435 1.1663074 -0.061850946 28
0.21346861 3.5930855 -0.064562552 21
0.2148349 3.6160827 0.96968633 2
0.21554571 3.628047 0.83887714 1
0.216002 3.6357272 0.70635039 1
0.21614861 3.638195 0.57698876 3
0.21544592 3.6263673 0.44569308 1
0.21447083 3.6099546 0.31484795 1
0.21321417 3.5888028 0.18717334 1
0.2128789 3.5831594 0.061244562 1
0.070557103 1.1277547 -0.30346519 40
0.069347113 1.1084148 -0.25730878 44
0.096838079 1.5478187 -0.30212516 30
0.10114153 1.6166033 -0.25683522 30
0.10907699 1.7434402 -0.21475226 8
0.10138942 1.6205654 -0.14278653 6
0.073578693 1.1760505 -0.062379587 28
0.22475554 3.592397 -0.064562552 21
0.22679727 3.625031 0.97227216 1
0.22815932 3.6468015 0.84337515 2
0.22742288 3.6350307 0.70635039 1
0.22634378 3.6177826 0.57386142 1
0.22683741 3.6256726 0.44569308 1
0.22581075 3.6092632 0.31484795 2
0.22511123 3.5980823 0.18769327 1
0.22475898 3.592452 0.061415158 1
0.07409969 1.1275275 -0.30346519 37
0.072190098 1.0984704 -0.25505167 77
0.10105654 1.5377125 -0.30021298 36
0.10557205 1.6064222 -0.25526917 46
0.11390275 1.7331849 -0.21353208 9
0.10713332 1.6301789 -0.14366251 6
0.077272996 1.1758137 -0.062379587 28
0.23604026 3.5916731 -0.064562552 28
0.2381845 3.6243007 0.97227216 1
0.23897597 3.636344 0.84112614 1
0.23948531 3.6440942 0.70825434 1
0.23835595 3.6269095 0.57542509 2
0.23822665 3.6249421 0.44569308 1
0.23714846 3.608536 0.31484795 1
0.23641382 3.5973573 0.18769327 1
0.23604389 3.5917282 0.061415158 1
0.077641554 1.1272891 -0.30346519 50
0.080995776 1.1759896 -0.27310842 87
0.10723577 1.556972 -0.30403733 33
0.11061825 1.6060826 -0.25526917 29
0.12002912 1.7427204 -0.21475226 11
0.11293862 1.6397724 -0.14453851 8
0.08096654 1.175565 -0.062379587 27
0.24732266 3.590914 -0.064562552 31
0.24956939 3.6235344 0.97227216 1
0.2510682 3.6452961 0.84337515 1
0.25228146 3.6629117 0.71206212 3
0.24907036 3.6162891 0.57386142 1
0.24961355 3.6241758 0.44569308 1
0.24916835 3.6177118 0.31571531 2
0.24771406 3.596597 0.18769327 1
0.24801347 3.6009438 0.061585754 1
0.082570381 1.1463052 -0.30865264 61
0.090989098 1.2631803 -0.29342228 32
0.11142141 1.5468373 -0.30212516 38
0.11779212 1.6352804 -0.25996739 19
0.12764271 1.7720336 -0.2184128 10
0.11808955 1.6394095 -0.14453851 8
0.083941825 1.1653447 -0.061850946 28
0.25860262 3.5901194 -0.064562552 20
0.26095179 3.6227326 0.97227216 1
0.26181892 3.6347706 0.84112614 1
0.26167163 3.632726 0.70635039 1
0.26184925 3.6351917 0.57698876 3
0.26171109 3.6332738 0.44691083 1
0.25981674 3.6069746 0.31484795 1
0.25829437 3.5858402 0.18717334 1
0.25860655 3.5901742 0.061415158 1
0.088343576 1.1749319 -0.31643379 76
0.097878791 1.3017462 -0.30245066 71
0.11628038 1.5464796 -0.30212516 37
0.12292892 1.6349022 -0.25996739 65
0.13544162 1.8013159 -0.22207335 6
0.12323932 1.6390305 -0.14453851 11
0.088351183 1.1750331 -0.062379587 28
0.27062967 3.5992594 -0.064741895 32
0.27233166 3.6218948 0.97227216 1
0.27396718 3.6436465 0.84337515 2
0.27308288 3.6318858 0.70635039 1
0.27178711 3.6146529 0.57386142 1
0.27237985 3.6225359 0.44569308 1
0.27114707 3.6061406 0.31484795 2
0.27030712 3.5949695 0.18769327 1
0.26988414 3.589344 0.061415158 2
0.094297431 1.2035334 -0.32421494 107
0.10272881 1.3111445 -0.30470774 66
0.12190491 1.5558922 -0.30403733 41
0.12497861 1.5951223 -0.25370309 37
0.1426505 1.8206714 -0.22451372 8
0.12838787 1.6386352 -0.14453851 4
0.093602255 1.1946608 -0.063436866 28
0.28115475 3.5884235 -0.064562552 25
0.28295425 3.6113911 0.96968633 2
0.28465155 3.6330538 0.84112614 1
0.28449142 3.6310101 0.70635039 4
0.28391302 3.6236279 0.57542509 3
0.28375903 3.6216624 0.44569308 2
0.28247476 3.6052709 0.31484795 1
0.2815997 3.5941026 0.18769327 1
0.28115904 3.5884786 0.061415158 1
0.10121647 1.2417346 -0.33458984 127
0.10684738 1.3108153 -0.30470774 99
0.12679228 1.5555016 -0.30403733 39
0.12838441 1.5750339 -0.25057095 48
0.1499823 1.8399992 -0.22695409 6
0.13434444 1.6481524 -0.1454145 7
0.095732346 1.1744548 -0.062379587 30
0.29242671 3.5875225 -0.064562552 37
0.29508317 3.6201122 0.97227216 1
0.29606369 3.6321416 0.84112614 1
0.29509959 3.6203136 0.70444649 5
0.29449314 3.6128738 0.57386142 1
0.29513538 3.620753 0.44569308 1
0.29460898 3.6142952 0.31571531 2
0.29288948 3.5932002 0.18769327 1
0.29243118 3.5875776 0.061415158 1
0.10593184 1.2510339 -0.33718354 134
0.11178686 1.3201804 -0.30696484 133
0.13250656 1.564876 -0.30594951 31
0.13166523 1.55494 -0.24743882 56
0.15743694 1.8592987 -0.22939445 6
0.1395216 1.6477221 -0.1454145 5
0.10026408 1.1840987 -0.062908225 31
0.30285218 3.5766234 -0.064383216 47
0.3064546 3.6191673 0.97227216 2
0.30829504 3.6409028 0.84337515 2
0.30812827 3.6389329 0.70825434 1
0.3066752 3.6217725 0.57542509 4
0.30650884 3.619808 0.44569308 1
0.30428106 3.5934982 0.31398061 1
0.30417639 3.5922623 0.18769327 1
0.30370042 3.5866411 0.061415158 1
0.11155173 1.2699363 -0.34237099 129
0.11508132 1.3101181 -0.30470774 138
0.13656323 1.5546741 -0.30403733 35
0.13309261 1.5151638 -0.24117455 28
0.16327731 1.8587949 -0.22939445 6
0.14469738 1.6472757 -0.1454145 5
0.10485735 1.1937256 -0.063436866 31
0.31408694 3.5756543 -0.064383216 51
0.31782302 3.6181867 0.97227216 2
0.31973174 3.6399162 0.84337515 1
0.31955877 3.6379468 0.70825434 1
0.31718752 3.6109521 0.57386142 1
0.31787926 3.6188271 0.44569308 1
0.31644058 3.6024487 0.31484795 2
0.31546029 3.5912888 0.18769327 1
0.31496668 3.5856693 0.061415158 1
0.11379018 1.2503436 -0.33718354 149
0.12096247 1.3291538 -0.30922195 101
0.14144669 1.5542375 -0.30403733 28
0.13964225 1.5344101 -0.24430668 20
0.17001563 1.8681573 -0.23061463 5
0.15167741 1.6666541 -0.14716648 5
0.10860702 1.1933903 -0.063436866 30
0.32531863 3.57465 -0.064383216 117
0.32918829 3.6171703 0.97227216 2
0.33116528 3.6388938 0.84337515 1
0.33098611 3.636925 0.70825434 1
0.33032042 3.6296105 0.57698876 3
0.32924658 3.6178107 0.44569308 1
0.32865933 3.6113579 0.31571531 1
0.325836 3.5803347 0.18717334 1
0.32622981 3.5846622 0.061415158 1
0.1186232 1.2595952 -0.33977726 194
0.12696436 1.3481653 -0.31373614 134
0.14816938 1.5733299 -0.30786172 26
0.14075789 1.4946314 -0.23804241 82
0.17588377 1.8676139 -0.23061463 6
0.15597859 1.6562517 -0.1462905 5
0.11235563 1.1930431 -0.063436866 34
11.249485 119.45216 -2.1520851 -1
0.33964461 3.6065011 0.96968633 1
0.34168196 3.6281345 0.84112614 2
0.34241021 3.6358674 0.70825434 1
0.33986938 3.6088879 0.57386142 1
0.34061062 3.6167586 0.44569308 1
0.3400031 3.6103077 0.31571531 2
0.33801866 3.589236 0.18769327 1
0.33842719 3.593574 0.061585754 1
0.12351547 1.2688286 -0.34237099 142
0.13214299 1.3574558 -0.31599322 126
0.15025839 1.5435488 -0.30212516 28
0.14449579 1.4843516 -0.23647635 21
0.18078853 1.8571736 -0.22939445 6
0.16214624 1.6656682 -0.14716648 5
0.11610312 1.1926843 -0.063436866 33
0.19180754 1.9703677 -0.035509404 28
0.35190901 3.6150308 0.97227216 1
0.35402244 3.6367412 0.84337515 1
0.35478204 3.6445446 0.71015823 2
0.35311928 3.6274633 0.57698876 2
0.35293296 3.6255496 0.44691083 2
0.35134351 3.6092217 0.31571531 1
0.34929287 3.5881562 0.18769327 1
0.34971505 3.5924931 0.061585754 1
0.127501 1.2684343 -0.34237099 129
0.13738124 1.3667271 -0.31825033 108
0.15412515 1.5333029 -0.30021298 29
0.15310951 1.5231987 -0.24274062 28
0.18761478 1.866472 -0.23061463 5
0.16737828 1.6651506 -0.14716648 5
0.11984947 1.1923137 -0.063436866 32
0.19799668 1.9697554 -0.035509404 27
0.3632642 3.6139073 0.97227216 2
0.36544582 3.6356111 0.84337515 2
0.36524811 3.6336441 0.70825434 1
0.36253783 3.6066811 0.57386142 1
0.36332852 3.614547 0.44569308 1
0.36268046 3.6081002 0.31571531 2
0.36056367 3.5870414 0.18769327 1
0.36099946 3.5913768 0.061585754 1
0.13048916 1.2584212 -0.33977726 128
0.14066947 1.3565989 -0.31599322 127
0.15387957 1.4839954 -0.29065204 30
0.15687534 1.5128863 -0.24117455 23
0.19040647 1.8362563 -0.22695409 7
0.17363611 1.674525 -0.14804247 4
0.12359463 1.1919312 -0.063436866 35
0.20418386 1.9691237 -0.035509404 31
0.37461582 3.6127481 0.97227216 2
0.37686563 3.634445 0.84337515 1
0.37767425 3.6422434 0.71015823 3
0.37590417 3.6251731 0.57698876 2
0.37468213 3.6133878 0.44569308 2
0.37298635 3.5970337 0.31484795 1
0.37183088 3.5858908 0.18769327 1
0.37124905 3.5802796 0.061415158 1
0.13341568 1.248402 -0.33718354 103
0.14596587 1.365837 -0.31825033 133
0.15541182 1.4542249 -0.28491548 27
0.15952837 1.4927446 -0.23804241 47
0.19406489 1.8159109 -0.22451372 7
0.17995447 1.6838764 -0.14891846 7
0.12839973 1.2014666 -0.063965507 34
0.20930655 1.9585307 -0.035330065 33
0.38493723 3.6019483 0.96968633 1
0.38724625 3.6235545 0.84112614 2
0.38807163 3.6312776 0.70825434 1
0.38624156 3.6141531 0.57542509 1
0.38603204 3.6121929 0.44569308 1
0.38534352 3.6057501 0.31571531 1
0.38309446 3.5847049 0.18769327 1
0.38355747 3.5890377 0.061585754 1
0.13733698 1.2479767 -0.33718354 70
0.1491904 1.3556882 -0.31599322 114
0.15997963 1.4537296 -0.28491548 38
0.16853869 1.5315055 -0.24430668 23
0.19434027 1.7659637 -0.2184128 6
0.18742296 1.7031063 -0.15067044 7
0.13217361 1.2010573 -0.063965507 38
0.21655211 1.9678019 -0.035509404 42
0.39730784 3.6103232 0.97227216 1
0.39862806 3.6223199 0.84112614 1
0.40162539 3.6495569 0.71206212 3
0.39867425 3.6227398 0.57698876 2
0.3984639 3.6208282 0.44691083 1
0.39666942 3.6045218 0.31571531 2
0.39435422 3.5834837 0.18769327 1
0.39373714 3.5778763 0.061415158 1
0.13908376 1.2283461 -0.33199611 71
0.1556408 1.374573 -0.32050741 73
0.16233718 1.4337136 -0.28109112 30
0.17001557 1.5015267 -0.23960848 71
0.19542049 1.7258954 -0.21353208 4
0.19277249 1.702509 -0.15067044 5
0.13706972 1.2105588 -0.064494148 43
0.22273307 1.9671118 -0.035509404 46
0.40864801 3.6090572 0.97227216 1
0.41110221 3.6307318 0.84337515 2
0.41087979 3.6287675 0.70825434 1
0.40783092 3.6018407 0.57386142 1
0.40983707 3.6195586 0.44691083 1
0.40799138 3.6032579 0.31571531 1
0.40561011 3.5822272 0.18769327 1
0.40610033 3.5865569 0.061585754 1
0.14405876 1.2374961 -0.33458984 59
0.15883191 1.3644006 -0.31825033 78
0.1713804 1.472195 -0.28873986 46
0.17815803 1.5304163 -0.24430668 22
0.20084158 1.7252729 -0.21353208 10
0.19812013 1.7018951 -0.15067044 2
0.1420268 1.2200412 -0.065022789 39
0.2277557 1.9564711 -0.035330065 52
0.41998416 3.6077557 0.97227216 1
0.42137975 3.6197438 0.84112614 1
0.42454818 3.6469612 0.71206212 2
0.42142856 3.6201632 0.57698876 2
0.42120621 3.6182532 0.44691083 1
0.41930932 3.6019583 0.31571531 2
0.41686198 3.5809352 0.18769327 1
0.41736582 3.5852633 0.061585754 1
0.14679889 1.227448 -0.33199611 58
0.1631175 1.3638949 -0.31825033 85
0.17367339 1.4521573 -0.28491548 31
0.17944652 1.5004288 -0.23960848 86
0.20508206 1.7147784 -0.21231189 10
0.20583169 1.7210464 -0.15242243 2
0.14467312 1.2096736 -0.064494148 43
0.23152637 1.9358907 -0.034971382 68
0.43131617 3.6064184 0.97227216 1
0.4350636 3.6377521 0.84562415 1
0.43483755 3.6358619 0.71015823 1
0.43162665 3.6090143 0.57542509 1
0.43139252 3.6070566 0.44569308 1
0.43062311 3.6006231 0.31571531 1
0.42929566 3.5895238 0.18821318 1
0.42862716 3.5839343 0.061585754 1
0.1506543 1.2269808 -0.33199611 58
0.16858874 1.3730451 -0.32050741 68
0.17823462 1.4516045 -0.28491548 32
0.19017765 1.5488727 -0.24743882 24
0.21167776 1.723977 -0.21353208 7
0.20880947 1.7006167 -0.15067044 3
0.1484727 1.2092131 -0.064494148 45
14.621969 119.08638 -2.1520851 -1
0.44264394 3.6050456 0.97227216 1
0.44530228 3.6266961 0.84337515 2
0.44745415 3.6442218 0.71206212 2
0.44416627 3.6174438 0.57698876 2
0.44393191 3.6155353 0.44691083 1
0.44193265 3.5992527 0.31571531 2
0.44057032 3.5881574 0.18821318 1
0.43988431 3.5825701 0.061585754 1
0.15571532 1.2360835 -0.33458984 60
0.17290145 1.3725086 -0.32050741 67
0.1864745 1.4802529 -0.29065204 32
0.20491821 1.6266608 -0.25996739 26
0.21833326 1.733151 -0.21475226 6
0.21290602 1.6900688 -0.14979446 4
0.15351894 1.2186484 -0.065022789 46
14.996017 119.03986 -2.1520851 -1
0.4539673 3.6036372 0.97227216 1
0.45669368 3.6252792 0.84337515 1
0.45767361 3.6330581 0.71015823 1
0.45552859 3.6160307 0.57698876 1
0.45528823 3.6141229 0.44691083 1
0.45323783 3.5978465 0.31571531 1
0.45059249 3.5768476 0.18769327 1
0.45238677 3.5910907 0.061756354 1
0.15959781 1.2355882 -0.33458984 58
0.17846042 1.3816204 -0.32276452 52
0.19363871 1.4991289 -0.29447642 24
0.20496659 1.5868281 -0.25370309 45
0.21996266 1.7029259 -0.2110917 6
0.22076668 1.7091506 -0.15154643 4
0.15862592 1.2280638 -0.06555143 42
15.369918 118.99216 -2.1520851 -1
0.46404874 3.592613 0.96968633 1
0.46808055 3.6238265 0.84337515 2
0.47160012 3.6510746 0.71396607 2
0.46815169 3.6243773 0.57855242 2
0.46664008 3.6126747 0.44691083 1
0.46581477 3.6062851 0.31658265 2
0.46310654 3.5853183 0.18821318 1
0.46238542 3.5797355 0.061585754 1
0.16094418 1.2159321 -0.32940239 61
0.18535668 1.4003683 -0.3272787 73
0.20092334 1.5179745 -0.29830077 36
0.21383871 1.61555 -0.2584013 26
0.22531146 1.7022265 -0.2110917 6
0.22744218 1.7183241 -0.15242243 3
0.16379355 1.2374592 -0.066080071 43
15.743666 118.94329 -2.1520851 -1
0.47660053 3.6007137 0.97227216 1
0.48074138 3.6319978 0.84562415 2
0.48049158 3.6301105 0.71015823 1
0.47694358 3.6033056 0.57542509 1
0.47798732 3.6111908 0.44691083 1
0.47583467 3.5949278 0.31571531 1
0.47436786 3.5838459 0.18821318 1
0.47362921 3.5782652 0.061585754 1
0.16627449 1.2249618 -0.33199611 53
0.1886891 1.3900926 -0.32502159 68
0.20331556 1.4978473 -0.29447642 26
0.2245087 1.6539794 -0.26466557 21
0.23362501 1.7211401 -0.21353208 12
0.23179922 1.7076893 -0.15154643 3
0.16520987 1.2171186 -0.065022789 43
0.15196626 1.1195515 -0.020265467 39
0.4885383 3.5991135 0.97227216 1
0.49147227 3.6207283 0.84337515 1
0.49384728 3.6382251 0.71206212 2
0.49154696 3.6212785 0.57855242 2
0.49129486 3.6194212 0.44812858 2
0.48909324 3.6032019 0.31658265 2
0.48624972 3.582253 0.18821318 1
0.48549256 3.5766749 0.061585754 1
0.16879292 1.2148675 -0.32940239 74
0.19305527 1.389493 -0.32502159 40
0.20937096 1.5069232 -0.2963886 33
0.22834453 1.6434833 -0.26309952 63
0.23493329 1.6909052 -0.20987152 20
0.23990469 1.7266862 -0.15329842 3
0.16903274 1.2165936 -0.065022789 45
0.15685862 1.1289718 -0.020444809 33
0.50117218 3.6071289 0.97485799 1
0.50418562 3.6288176 0.84562415 2
0.50392365 3.6269321 0.71015823 1
0.50156188 3.6099334 0.57698876 1
0.50129724 3.6080289 0.44691083 1
0.49903962 3.5917799 0.31571531 1
0.49750125 3.5807078 0.18821318 1
0.49810258 3.5850356 0.061756354 1
0.1726087 1.2143313 -0.32940239 56
0.19604856 1.3792346 -0.32276452 80
0.2099601 1.4771047 -0.29065204 34
0.23350655 1.6427579 -0.26309952 33
0.24303779 1.7098118 -0.21231189 10
0.24392617 1.7160616 -0.15242243 15
0.17425926 1.2259432 -0.06555143 45
0.16181168 1.1383723 -0.02062415 48
0.51114243 3.5959728 0.97227216 1
0.51421213 3.6175687 0.84337515 1
0.51669699 3.6350505 0.71206212 1
0.51429027 3.6181188 0.57855242 3
0.51402652 3.6162629 0.44812858 2
0.51172304 3.6000576 0.31658265 2
0.51015329 3.5890143 0.18873312 1
0.50936282 3.5834529 0.061756354 1
0.17503361 1.2042257 -0.32680866 63
0.19897932 1.3689712 -0.32050741 60
0.21601136 1.4861511 -0.29256421 31
0.23724563 1.6322422 -0.26153344 27
0.24983574 1.7188618 -0.21353208 7
0.25074896 1.7251447 -0.15329842 10
0.17954618 1.2352718 -0.066080071 42
0.16394903 1.127964 -0.020444809 42
0.52382642 3.6039088 0.97485799 1
0.52697605 3.6255779 0.84562415 2
0.52952635 3.6431243 0.71396607 2
0.5242337 3.6067109 0.57698876 1
0.52395707 3.6048079 0.44691083 1
0.5230304 3.5984323 0.31658265 1
0.51998955 3.5775113 0.18821318 2
0.52061802 3.581835 0.061756354 1
0.1802351 1.2132227 -0.32940239 57
0.20041598 1.349067 -0.31599322 105
0.22067916 1.4854652 -0.29256421 36
0.24527496 1.6510277 -0.26466557 35
0.25523448 1.7180685 -0.21353208 6
0.26055887 1.7539088 -0.15592639 5
0.18342601 1.2347018 -0.066080071 44
0.16896103 1.1373332 -0.02062415 39
0.53372633 3.5926902 0.97227216 2
0.53693169 3.6142666 0.84337515 1
0.53952634 3.6317322 0.71206212 1
0.53701329 3.614816 0.57855242 2
0.53673786 3.6129618 0.44812858 1
0.53433263 3.5967712 0.31658265 2
0.52975857 3.5659819 0.18769327 1
0.53039885 3.570292 0.061585754 1
0.18404566 1.2126505 -0.32940239 65
0.19880597 1.3099041 -0.30696484 76
0.22681764 1.4944689 -0.29447642 41
0.24453253 1.6111898 -0.2584013 35
0.25914136 1.7074453 -0.21231189 4
0.26158336 1.7235353 -0.15329842 5
0.18580559 1.2242464 -0.06555143 50
0.17103295 1.1269116 -0.020444809 35
0.54645991 3.6005464 0.97485799 1
0.55120772 3.631829 0.84787309 2
0.55240619 3.6397252 0.71396607 2
0.54688483 3.6033459 0.57698876 1
0.54808563 3.6112578 0.44812858 1
0.54562956 3.5950749 0.31658265 1
0.54245728 3.5741735 0.18821318 1
0.54311293 3.5784934 0.061756354 2
0.18785441 1.2120663 -0.32940239 63
0.20441224 1.3189001 -0.30922195 74
0.23151152 1.493749 -0.29447642 46
0.25564376 1.649454 -0.26466557 23
0.26450416 1.7066227 -0.21231189 7
0.27004808 1.742393 -0.1550504 3
0.19270964 1.2433931 -0.066608712 46
0.17610373 1.1362492 -0.02062415 58
0.5577687 3.5988119 0.97485799 1
0.56112242 3.6204505 0.84562415 1
0.56233442 3.6282706 0.71206212 1
0.55971509 3.6113703 0.57855242 2
0.55942804 3.6095181 0.44812858 1
0.55692112 3.593343 0.31658265 2
0.55521274 3.5823202 0.18873312 1
0.5543524 3.5767694 0.061756354 1
0.18864299 1.1923919 -0.32421494 64
0.20703237 1.3086292 -0.30696484 77
0.23620312 1.4930143 -0.29447642 33
0.26082441 1.6486427 -0.26466557 55
0.26986438 1.7057834 -0.21231189 6
0.27552065 1.741536 -0.1550504 4
0.19661491 1.2427815 -0.066608712 45
0.17967249 1.1356903 -0.02062415 51
0.56907189 3.5970416 0.97485799 1
0.57401615 3.628294 0.84787309 2
0.57679826 3.645879 0.71586996 2
0.56951439 3.5998385 0.57698876 1
0.5707649 3.6077428 0.44812858 1
0.56820714 3.5915756 0.31658265 1
0.56490362 3.5706944 0.18821318 1
0.56558639 3.5750103 0.061756354 1
0.19392718 1.2013278 -0.32680866 65
0.20803748 1.2887374 -0.30245066 47
0.23776393 1.4728848 -0.29065204 30
0.25970656 1.6088136 -0.2584013 50
0.27680364 1.7147256 -0.21353208 12
0.28099045 1.7406619 -0.1550504 4
0.20051825 1.2421577 -0.066608712 46
0.18164609 1.1252496 -0.020444809 51
0.58036953 3.5952361 0.97485799 2
0.58385915 3.6168535 0.84562415 1
0.58668476 3.6343575 0.71396607 1
0.58239484 3.6077824 0.57855242 2
0.5820961 3.605932 0.44812858 1
0.57948762 3.5897729 0.31658265 2
0.57770997 3.5787611 0.18873312 1
0.57681483 3.5732157 0.061756354 1
0.19926934 1.210242 -0.32940239 55
0.21366787 1.2976899 -0.30470774 80
0.24238995 1.4721307 -0.29065204 28
0.2695733 1.637226 -0.26309952 17
0.28380173 1.7236409 -0.21475226 14
0.28645751 1.7397705 -0.1550504 4
0.2044196 1.2415216 -0.066608712 45
0.18355587 1.1148078 -0.020265467 50
0.59166139 3.5933952 0.97485799 1
0.59680194 3.6246157 0.84787309 2
0.59969443 3.6421831 0.71586996 3
0.5937261 3.6059349 0.57855242 1
0.59503412 3.6138792 0.4493463 1
0.59076232 3.5879347 0.31658265 1
0.58732766 3.5670748 0.18821318 2
0.58966196 3.5812516 0.06192695 1
0.19987248 1.1905611 -0.32421494 56
0.21935654 1.3066198 -0.30696484 61
0.25026375 1.4907218 -0.29447642 38
0.27308026 1.6266307 -0.26153344 67
0.29085857 1.7325292 -0.21597244 10
0.29357103 1.7486861 -0.15592639 4
0.20831895 1.2408733 -0.066608712 41
0.19036798 1.1339465 -0.02062415 49
0.60294747 3.5915186 0.97485799 1
0.60657281 3.6131134 0.84562415 1
0.60950834 3.6305995 0.71396607 1
0.60668683 3.6137924 0.58011609 2
0.60474122 3.6022034 0.44812858 1
0.60368061 3.5958858 0.31745002 2
0.59853107 3.565212 0.18821318 2
0.59925449 3.569521 0.061756354 1
0.20524064 1.1994467 -0.32680866 58
0.22674648 1.325129 -0.31147903 51
0.24997927 1.4609038 -0.28873986 52
0.27485749 1.6062945 -0.2584013 22
0.29964805 1.751173 -0.2184128 6
0.2973831 1.7379364 -0.1550504 5
0.21390049 1.2500557 -0.067137353 40
0.19392943 1.1333429 -0.02062415 44
0.61585677 3.5991282 0.97744381 1
0.61956412 3.6207943 0.84787309 2
0.62256694 3.6383431 0.71586996 3
0.61470515 3.5923977 0.57698876 1
0.61772889 3.610069 0.4493463 1
0.61497444 3.5939717 0.31745002 1
0.60972852 3.563314 0.18821318 1
0.61046547 3.5676208 0.061756354 2
0.2090078 1.198796 -0.32680866 58
0.23592813 1.3532016 -0.31825033 68
0.24445233 1.4020935 -0.27726674 66
0.28838435 1.6540723 -0.26623166 106
0.30344331 1.7404453 -0.21719262 5
0.30455247 1.746807 -0.15592639 5
0.21782659 1.2493775 -0.067137353 38
0.19748898 1.132728 -0.02062415 47
0.62716073 3.5971756 0.97744381 1
