# .PCD v0.7 - Point Cloud Data file format
VERSION 0.7
FIELDS x y z intensity
SIZE 4 4 4 4
TYPE F F F F
COUNT 1 1 1 1
WIDTH 1341
HEIGHT 1
VIEWPOINT 0 0 0 1 0 0 0
POINTS 1341
DATA ascii
-0.355079 1.2198056 -0.15618345 5
-1.0078784 3.4623725 -0.31710872 6
-1.0633826 3.6530468 -0.20141205 2
-1.0619059 3.6479735 -0.068149365 1
-1.0691526 3.672868 1.0239887 1
-1.0729951 3.6860681 0.88610613 1
-1.081063 3.713784 0.75014031 2
-1.0710969 3.6795473 0.60669822 1
-1.0708175 3.6785874 0.47004789 1
-1.063643 3.6539412 0.33132759 2
-1.0662225 3.6628027 0.19861171 1
-1.0647167 3.6576295 0.06499771 1
-0.39251119 1.3643544 -0.38127679 23
-0.39862549 1.3856076 -0.33404997 31
-0.40977541 1.4243642 -0.28873986 18
-0.36863732 1.2813698 -0.21141925 15
-0.348501 1.2113767 -0.15496327 6
-0.9969961 3.4655218 -0.31710872 7
-1.0519011 3.6563694 -0.20141205 1
-1.0532045 3.6609004 -0.068328701 1
-1.0576086 3.6762087 1.0239887 1
-1.0614096 3.6894207 0.88610613 1
-1.0639621 3.6982932 0.74633253 1
-1.0595319 3.6828942 0.60669822 2
-1.0565114 3.6723945 0.46883017 1
-1.0521586 3.6572647 0.33132759 1
-1.0547103 3.6661341 0.19861171 1
-1.0504563 3.6513476 0.064827114 1
-0.38030007 1.3377118 -0.37349561 24
-0.39427051 1.3868531 -0.33404997 25
-0.4026145 1.4162031 -0.28682768 17
-0.36731076 1.2920216 -0.21298532 15
-0.34740776 1.2220125 -0.15618345 6
-0.98610395 3.4686368 -0.31710872 7
-1.0376784 3.6500506 -0.20088342 1
-1.0389643 3.6545737 -0.068149365 1
-1.0434128 3.6702216 1.021403 1
-1.0498137 3.6927371 0.88610613 1
-1.0523384 3.7016175 0.74633253 1
-1.0425547 3.6672034 0.60357088 1
-1.044969 3.6756957 0.46883017 1
-1.0406638 3.660552 0.33132759 1
-1.0431876 3.6694295 0.19861171 1
-1.0362459 3.6450121 0.064656511 1
-0.37609568 1.3389 -0.37349561 25
-0.38727713 1.3787059 -0.33179289 24
-0.40347224 1.4363605 -0.29065204 18
-0.36057901 1.2836607 -0.21141925 17
-0.34088287 1.2135425 -0.15496327 6
-0.97250813 3.4621272 -0.31623274 7
-1.0262063 3.6532927 -0.20088342 1
-1.0247741 3.6481938 -0.067970023 1
-1.0318773 3.6734815 1.021403 1
-1.0355724 3.6866362 0.88385713 1
-1.0407043 3.7049053 0.74633253 2
-1.0336999 3.6799698 0.60513455 2
-1.0307322 3.6694045 0.46761242 1
-1.0264646 3.6542122 0.33046025 1
-1.0289539 3.6630743 0.19809178 1
-1.0247897 3.6482496 0.064656511 1
-0.37447008 1.349381 -0.37608933 30
-0.38033882 1.3705286 -0.32953578 25
-0.39370835 1.4187049 -0.28682768 22
-0.35654449 1.2847871 -0.21141925 18
-0.33972281 1.2241712 -0.15618345 5
-0.96162671 3.4651654 -0.31623274 5
-1.014724 3.6564984 -0.20088342 1
-1.0133078 3.6513953 -0.067970023 1
-1.0203316 3.6767049 1.021403 1
-1.0265911 3.6992602 0.88610613 1
-1.0264347 3.6986969 0.74442858 1
-1.0168514 3.6641643 0.60200721 1
-1.0191993 3.6726246 0.46761242 2
-1.0149795 3.657419 0.33046025 1
-1.0147705 3.656666 0.19757186 1
-1.0133233 3.6514511 0.064656511 1
-0.37022904 1.3505508 -0.37608933 33
-0.37860686 1.381112 -0.33179289 26
-0.38924944 1.4199347 -0.28682768 21
-0.35250646 1.2859008 -0.21141925 21
-0.33325127 1.2156603 -0.15496327 5
-0.95073587 3.4681692 -0.31623274 5
-1.0005918 3.6500375 -0.20035477 1
-0.9991883 3.644918 -0.06779068 1
-1.006222 3.6705761 1.0188171 1
-1.0123883 3.6930702 0.88385713 1
-1.0122144 3.6924355 0.74252468 1
-1.0079464 3.6768663 0.60357088 2
-1.0076563 3.6758084 0.46761242 1
-1.0008506 3.6509817 0.32959288 2
-1.0032778 3.6598358 0.19757186 1
-0.99920362 3.6449738 0.064485915 1
-0.35841227 1.3237408 -0.36830819 39
-0.37172008 1.3728912 -0.32953578 28
-0.38478667 1.4211507 -0.28682768 24
-0.34588373 1.2774687 -0.20985319 23
-0.32683659 1.2071209 -0.15374309 6
-0.9372322 3.4615235 -0.31535676 3
-0.98911989 3.653163 -0.20035477 2
-0.98773259 3.6480391 -0.06779068 1
-0.99468565 3.6737192 1.0188171 1
-0.99823475 3.6868272 0.88160813 1
-1.0031749 3.7050731 0.74442858 1
-0.99380893 3.670481 0.60200721 1
-0.99610353 3.6789558 0.46761242 1
-0.98937571 3.6541078 0.32959288 1
-0.99177516 3.6629698 0.19757186 2
-0.9851346 3.6384437 0.064315319 1
-0.35175711 1.3155303 -0.36571446 38
-0.36740521 1.3740523 -0.32953578 46
-0.38539103 1.4413172 -0.29065204 29
-0.34186876 1.278549 -0.20985319 26
-0.32304269 1.2081418 -0.15374309 6
-0.92635292 3.4644511 -0.31535676 6
-0.9776383 3.6562524 -0.20035477 1
-0.97626704 3.651124 -0.06779068 1
-0.98064411 3.6674938 1.0162313 1
-0.98664731 3.689945 0.88160813 1
-0.99153018 3.7082064 0.74442858 3
-0.98227286 3.6735852 0.60200721 2
-0.98197693 3.6724784 0.46639469 1
-0.98046458 3.6668222 0.33046025 2
-0.97510344 3.6467724 0.19653201 1
-0.976282 3.65118 0.064485915 1
-0.34515712 1.307291 -0.36312073 40
-0.36059979 1.3657805 -0.3272787 43
-0.3808611 1.4425207 -0.29065204 27
-0.34037167 1.289166 -0.21141925 28
-0.31924564 1.2091507 -0.15374309 5
-0.91292149 3.4577127 -0.31448075 5
-0.96614707 3.6593056 -0.20035477 2
-0.96479189 3.6541731 -0.06779068 1
-0.96911752 3.6705565 1.0162313 1
-0.97505015 3.6930265 0.88160813 1
-0.97736955 3.7018111 0.74252468 1
-0.96820575 3.6671031 0.6004436 1
-0.97043467 3.6755452 0.46639469 1
-0.96639693 3.6602521 0.32959288 2
-0.963642 3.6498177 0.19653201 1
-0.96225429 3.6445618 0.064315319 1
-0.33861238 1.2990234 -0.36052704 45
-0.35630727 1.3669066 -0.3272787 59
-0.37632743 1.4437102 -0.29065204 30
-0.33631995 1.290229 -0.21141925 28
-0.31544539 1.2101476 -0.15374309 6
-0.89954162 3.4509242 -0.31360477 7
-0.9521274 3.6526597 -0.19982614 1
-0.94826329 3.6378357 -0.067432001 1
-0.9575814 3.673583 1.0162313 1
-0.9609856 3.6866426 0.87935913 1
-0.96573514 3.7048633 0.74252468 2
-0.95917183 3.6796844 0.60200721 2
-0.95637923 3.6689711 0.46517694 1
-0.9523803 3.6536298 0.32872555 2
-0.95720893 3.6721542 0.19757186 2
-0.95079982 3.6475668 0.064315319 1
-0.33452973 1.3000808 -0.36052704 48
-0.3495836 1.3585846 -0.32502159 79
-0.36934403 1.4353795 -0.28873986 32
-0.32980371 1.2817142 -0.20985319 34
-0.31411541 1.2207448 -0.15496327 5
-0.52130198 2.0259328 -0.1839581 15
-0.94064754 3.655633 -0.19982614 1
-0.93932158 3.65048 -0.067611344 1
-0.94362855 3.667218 1.0136454 2
-0.94939893 3.6896434 0.87935913 1
-0.95164484 3.6983716 0.74062079 1
-0.94514573 3.6731141 0.6004436 1
-0.94484812 3.6719575 0.46517694 1
-0.94089741 3.6566038 0.32872555 1
-0.93820202 3.6461289 0.19601208 1
-0.93684435 3.6408527 0.064144723 1
-0.33282104 1.310486 -0.36312073 54
-0.34531376 1.3596762 -0.32502159 49
-0.36241671 1.4270192 -0.28682768 37
-0.32334429 1.2731712 -0.2082871 32
-0.30783564 1.2121058 -0.15374309 6
-0.51493478 2.0275605 -0.1839581 6
-0.92670029 3.6488912 -0.1992975 1
-0.9253875 3.6437221 -0.067432001 1
-0.93210304 3.6701643 1.0136454 1
-0.93780291 3.6926079 0.87935913 2
-0.9400214 3.7013431 0.74062079 2
-0.93360162 3.6760652 0.6004436 2
-0.93330771 3.6749077 0.46517694 1
-0.92940521 3.6595416 0.32872555 2
-0.92428458 3.6393793 0.19549215 1
-0.92540169 3.6437778 0.064144723 1
-0.32870239 1.3115251 -0.36312073 53
-0.34104052 1.3607544 -0.32502159 40
-0.34600076 1.3805457 -0.27726674 32
-0.32174399 1.283761 -0.20985319 39
-0.29920036 1.1938118 -0.15130273 6
-0.51098418 2.038831 -0.18483409 5
-0.91766012 3.6614709 -0.19982614 2
-0.9139359 3.6466112 -0.067432001 1
-0.92056829 3.6730745 1.0136454 1
-0.92382884 3.6860843 0.87711012 1
-0.92600209 3.6947553 0.7387169 1
-0.91964716 3.6693995 0.59887993 1
-0.92175806 3.6778216 0.46517694 2
-0.91548193 3.6527801 0.32785821 1
-0.91770214 3.6616387 0.19653201 1
-0.91394985 3.646667 0.064144723 1
-0.32458049 1.3125513 -0.36312073 47
-0.34144118 1.3807331 -0.32953578 25
-0.34401825 1.3911544 -0.27917895 38
-0.31770936 1.2847655 -0.20985319 36
-0.29783109 1.2043809 -0.15252291 6
-0.50218517 2.030756 -0.1839581 6
-0.90135831 3.6449478 -0.19876885 1
-0.90247524 3.6494646 -0.067432001 1
-0.9067055 3.6665711 1.0110596 1
-0.91224414 3.6889684 0.87711012 1
-0.9167468 3.7071762 0.74062079 2
-0.91048598 3.6818585 0.6004436 2
-0.90781659 3.6710639 0.46395919 1
-0.90400189 3.655638 0.32785821 1
-0.90379691 3.6548092 0.19601208 1
-0.90248907 3.6495204 0.064144723 1
-0.3204554 1.3135645 -0.36312073 40
-0.33710182 1.381799 -0.32953578 65
-0.35127783 1.4399073 -0.28873986 42
-0.31601241 1.2953525 -0.21141925 31
-0.28934121 1.1860256 -0.15008254 7
-0.49580288 2.0323236 -0.1839581 6
-0.88990289 3.6477616 -0.19876885 1
-0.88863599 3.6425681 -0.067252658 2
-0.89518219 3.6694014 1.0110596 1
-0.89603174 3.6728837 0.87261212 1
-0.89811563 3.681426 0.73490906 1
-0.89423275 3.6655097 0.59731627 1
-0.8962791 3.673898 0.46395919 1
-0.89015174 3.6487815 0.32699084 2
-0.88994366 3.6479287 0.19549215 1
-0.88864958 3.6426239 0.06397412 1
-0.31858662 1.3239545 -0.36571446 46
-0.33275911 1.3828512 -0.32953578 38
-0.35823438 1.4887192 -0.29830077 41
-0.30963072 1.2867364 -0.20985319 41
-0.28793582 1.1965786 -0.15130273 7
-0.48708516 2.0241859 -0.18308212 6
-0.87843877 3.6505392 -0.19876885 2
-0.87718815 3.6453419 -0.067252658 1
-0.88365 3.6721957 1.0110596 1
-0.88676822 3.685154 0.87486112 1
-0.88654572 3.6842294 0.73490906 1
-0.88502359 3.6779037 0.59887993 2
-0.88473284 3.6766956 0.46395919 1
-0.8786844 3.6515601 0.32699084 1
-0.878479 3.6507065 0.19549215 1
-0.87720156 3.6453977 0.06397412 1
-0.3166557 1.3343456 -0.36830819 39
-0.3284131 1.3838898 -0.32953578 37
-0.36488757 1.5375885 -0.30786172 24
-0.30558681 1.2877028 -0.20985319 40
-0.28646699 1.2071344 -0.15252291 7
-0.48532382 2.0450909 -0.18483409 7
-0.86696595 3.653281 -0.19876885 1
-0.86342305 3.6383514 -0.067073323 1
-0.86987865 3.6655548 1.0084738 1
-0.87518662 3.6879218 0.87486112 2
-0.87496698 3.6869962 0.73490906 1
-0.87118417 3.6710558 0.59731627 1
-0.87317777 3.6794567 0.46395919 1
-0.8649081 3.6446095 0.32612351 2
-0.86700565 3.6534483 0.19549215 1
-0.86343622 3.6384072 0.063803524 1
-0.31246218 1.3353338 -0.36830819 42
-0.32628348 1.3944005 -0.33179289 35
-0.36229166 1.5482845 -0.30977389 36
-0.29928955 1.2790396 -0.2082871 24
-0.28041187 1.1983641 -0.15130273 7
-0.47662693 2.036906 -0.1839581 7
-0.85320932 3.6462631 -0.19824022 1
-0.84971052 3.6313107 -0.06689398 2
-0.85835874 3.6682694 1.0084738 1
-0.86137635 3.6811655 0.87261212 1
-0.86561638 3.6992857 0.73681295 3
-0.86189729 3.6833918 0.59887993 2
-0.85935271 3.6725173 0.46274146 1
-0.85345393 3.6473086 0.32612351 1
-0.85779905 3.6658778 0.19601208 2
-0.8542797 3.6508374 0.06397412 1
-0.30175292 1.308077 -0.36052704 59
-0.32409105 1.4049113 -0.33404997 52
-0.34860048 1.5111579 -0.30212516 34
-0.29748994 1.2895974 -0.20985319 38
-0.27441472 1.1895679 -0.15008254 7
-0.46798632 2.0286868 -0.18308212 6
-0.84175009 3.6489255 -0.19824022 1
-0.83829826 3.6339622 -0.06689398 1
-0.84683031 3.670948 1.0084738 1
-0.84761715 3.6743588 0.87036312 1
-0.84957713 3.6828551 0.73300517 1
-0.84588104 3.6668329 0.5957526 1
-0.84781092 3.6751988 0.46274146 1
-0.83975208 3.6402645 0.32525614 2
-0.84178865 3.6490927 0.19497223 1
-0.83831108 3.6340177 0.063632928 1
-0.2974135 1.3090705 -0.36052704 65
-0.32158872 1.4154781 -0.33630708 125
-0.34576198 1.5218772 -0.30403733 44
-0.29321185 1.2905768 -0.20985319 40
-0.27266738 1.20015 -0.15130273 7
-0.4590494 2.0205135 -0.18220612 7
-0.82964516 3.6516969 -0.19824022 1
-0.82845813 3.646472 -0.067073323 1
-0.8325122 3.6643162 1.005888 1
-0.83542788 3.6771495 0.87036312 1
-0.83735967 3.6856523 0.73300517 1
-0.83371675 3.6696179 0.5957526 3
-0.83341986 3.6683111 0.46152371 1
-0.82988304 3.6527438 0.32612351 1
-0.83189565 3.6616025 0.19549215 2
-0.82847083 3.6465278 0.063803524 1
-0.2932995 1.3099984 -0.36052704 64
-0.31714031 1.4164814 -0.33630708 112
-0.3431237 1.5325341 -0.30594951 45
-0.29347169 1.3107675 -0.21298532 35
-0.26889566 1.2010007 -0.15130273 7
-0.45269951 2.0219457 -0.18220612 7
-0.81816894 3.6542852 -0.19824022 2
-0.81262934 3.6295431 -0.066714637 1
-0.82310688 3.6763401 1.0084738 1
-0.82600051 3.6892643 0.87261212 1
-0.82363182 3.6786847 0.73110121 1
-0.81786823 3.6529422 0.59262532 1
-0.82189143 3.6709113 0.46152371 1
-0.81405032 3.6358898 0.3243888 2
-0.81820643 3.6544526 0.19497223 1
-0.81482631 3.6393557 0.063632928 1
-0.28732926 1.3014321 -0.35793331 63
-0.31083587 1.4079033 -0.33404997 75
-0.33857507 1.5335455 -0.30594951 37
-0.28532276 1.2923439 -0.20985319 57
-0.26319128 1.1921014 -0.15008254 6
-0.44884586 2.0330071 -0.18308212 7
-0.80517 3.6469455 -0.19771157 1
-0.80401224 3.6417015 -0.06689398 1
-0.80803025 3.6599007 1.0033021 1
-0.81295002 3.6821842 0.87036312 2
-0.81482977 3.6906986 0.73300517 3
-0.8112849 3.6746423 0.5957526 2
-0.80885619 3.6636417 0.46030599 1
-0.80325884 3.638289 0.3243888 1
-0.80520689 3.6471126 0.1944523 1
-0.80618012 3.6515205 0.063803524 1
-0.28141248 1.2928421 -0.35533959 59
-0.3066572 1.4088193 -0.33404997 76
-0.34237406 1.5729069 -0.31359825 32
-0.28148705 1.2931848 -0.20985319 46
-0.26176408 1.2025752 -0.15130273 7
-0.44069314 2.0245965 -0.18220612 8
-0.7943458 3.6493185 -0.19771157 1
-0.78895044 3.6245317 -0.066535302 1
-0.79716754 3.662282 1.0033021 1
-0.79787636 3.6655383 0.86586511 1
-0.80178773 3.6835074 0.73110121 1
-0.79827774 3.6673822 0.59418899 1
-0.79798239 3.6660254 0.46030599 1
-0.79246032 3.6406562 0.3243888 2
-0.79438215 3.6494856 0.1944523 1
-0.79108912 3.634357 0.063462332 1
-0.27712369 1.2937683 -0.35533959 68
-0.29994327 1.4003026 -0.33179289 88
-0.34949121 1.6316202 -0.32507136 26
-0.27926576 1.3037686 -0.21141925 29
-0.25777477 1.2034366 -0.15130273 7
-0.43189049 2.0163059 -0.18133013 7
-0.78014827 3.642168 -0.19718294 1
-0.77902091 3.6369047 -0.066714637 1
-0.78299534 3.6554596 1.0007163 1
-0.78775746 3.6776917 0.86811411 2
-0.78751218 3.6765468 0.72919732 1
-0.78818059 3.6796672 0.5957526 2
-0.78582102 3.6686516 0.46030599 1
-0.77829653 3.6335227 0.32352144 2
-0.78018403 3.6423349 0.19393237 1
-0.77903283 3.6369603 0.063462332 1
-0.27505097 1.3040823 -0.35793331 60
-0.28951111 1.3726413 -0.32502159 70
-0.34841496 1.6519184 -0.32889572 18
-0.27720678 1.3143035 -0.21298532 33
-0.2539928 1.2042404 -0.15130273 7
-0.42555395 2.017653 -0.18133013 7
-0.76870227 3.6446009 -0.19718294 1
-0.76759142 3.6393342 -0.066714637 1
-0.77150756 3.6579015 1.0007163 1
-0.77418888 3.6706142 0.86586511 1
-0.77595812 3.6790025 0.72919732 1
-0.77050161 3.653132 0.59106165 1
-0.77224338 3.6613903 0.45908824 1
-0.76893359 3.6456978 0.3243888 1
-0.76873749 3.644768 0.19393237 1
-0.76553971 3.6296065 0.063291736 1
-0.27095273 1.30494 -0.35793331 56
-0.28321689 1.3640056 -0.32276452 72
-0.33923262 1.6337839 -0.32507136 18
-0.26906058 1.2958272 -0.20985319 17
-0.24819051 1.1953145 -0.15008254 7
-0.41718805 2.0092263 -0.18045413 8
-0.75724864 3.6469979 -0.19718294 1
-0.75412166 3.631938 -0.066535302 1
-0.76001209 3.6603072 1.0007163 1
-0.76265347 3.6730282 0.86586511 2
-0.76439637 3.6814222 0.72919732 1
-0.76303715 3.674876 0.59418899 3
-0.760737 3.6637981 0.45908824 1
-0.75747657 3.6480956 0.3243888 2
-0.75728333 3.6471651 0.19393237 1
-0.75819862 3.6515729 0.063632928 1
-0.2629844 1.2868603 -0.35274586 57
-0.28478202 1.3935226 -0.32953578 40
-0.33606353 1.6444583 -0.32698354 18
-0.27092087 1.3256959 -0.21455139 18
-0.24443409 1.1960883 -0.15008254 8
-0.41087383 2.0105271 -0.18045413 7
-0.74378806 3.639575 -0.19665429 1
-0.74070597 3.6244934 -0.066355959 1
-0.74850917 3.6626768 1.0007163 1
-0.74915963 3.6658597 0.86361611 1
-0.75086147 3.6741872 0.72729343 1
-0.7475332 3.657901 0.59106165 1
-0.74922311 3.6661701 0.45908824 1
-0.7440173 3.6406968 0.32352144 1
-0.74582171 3.6495261 0.19393237 1
-0.74472117 3.644141 0.063462332 1
-0.25871557 1.2877253 -0.35274586 53
-0.28015938 1.3944594 -0.32953578 84
-0.33834201 1.6840564 -0.33463228 13
-0.26263237 1.3072208 -0.21141925 21
-0.24242139 1.2066231 -0.15130273 7
-0.40616655 2.0216448 -0.18133013 7
-0.73171473 3.6420214 -0.19665429 1
-0.72868264 3.6269295 -0.066355959 2
-0.73635918 3.6651387 1.0007163 1
-0.73699909 3.6683238 0.86361611 1
-0.74254072 3.6959064 0.73110121 2
-0.73734456 3.6700435 0.59262532 2
-0.73510641 3.6589034 0.45787048 1
-0.73194021 3.6431439 0.32352144 2
-0.73174828 3.6421883 0.19341245 1
-0.73066324 3.6367879 0.063291736 1
-0.25654134 1.2980063 -0.35533959 58
-0.27766606 1.4048897 -0.33179289 63
-0.33495286 1.6947402 -0.33654448 19
-0.26043931 1.3177286 -0.21298532 14
-0.23670505 1.1976418 -0.15008254 8
-0.39788193 2.0131385 -0.18045413 6
-0.72026938 3.6443024 -0.19665429 2
-0.7153461 3.6193924 -0.066176616 1
-0.72109526 3.6484809 0.99554461 1
-0.72358185 3.6610622 0.86136711 1
-0.72521567 3.6693287 0.72538948 1
-0.72198105 3.6529624 0.58949798 1
-0.72360802 3.6611946 0.45787048 2
-0.71855974 3.6356521 0.3226541 1
-0.7203024 3.6444693 0.19341245 1
-0.71923435 3.6390653 0.063291736 1
-0.25246227 1.2988058 -0.35533959 56
-0.27139226 1.3961921 -0.32953578 69
-0.33149993 1.7054193 -0.33845666 15
-0.26006734 1.3379306 -0.21611746 17
-0.23294139 1.1983795 -0.15008254 8
-0.39155552 2.0143785 -0.18045413 7
-0.70500612 3.6269419 -0.19559701 1
-0.70587975 3.6314363 -0.066355959 1
-0.70962965 3.6507282 0.99554461 1
-0.71393597 3.6728821 0.86361611 2
-0.71555775 3.6812255 0.72729343 1
-0.71238601 3.6649082 0.59106165 3
-0.71210253 3.6634498 0.45787048 1
-0.70713449 3.6378915 0.3226541 2
-0.70694393 3.6369112 0.19289252 1
-0.70779836 3.6413069 0.063291736 1
-0.24475473 1.2806205 -0.35015213 56
-0.26883346 1.4066066 -0.33179289 58
-0.32245535 1.6871704 -0.33463228 17
-0.25771692 1.348442 -0.21768352 13
-0.22917542 1.1991054 -0.15008254 8
-0.3833552 2.0058141 -0.17957814 7
-0.69548291 3.6389475 -0.19612566 1
-0.69446778 3.633636 -0.066355959 2
-0.69815707 3.6529396 0.99554461 1
-0.70056462 3.6655362 0.86136711 1
-0.70214641 3.6738129 0.72538948 1
-0.69901472 3.6574268 0.58949798 1
-0.70058995 3.665669 0.45787048 1
-0.6938321 3.6303101 0.32178676 1
-0.69738948 3.6489232 0.19341245 1
-0.69447839 3.6336918 0.063121133 1
-0.24251352 1.2908747 -0.35274586 56
-0.26261443 1.3978697 -0.32953578 62
-0.31534109 1.6785283 -0.3327201 14
-0.25347942 1.349245 -0.21768352 14
-0.2254072 1.1998194 -0.15008254 10
-0.37521258 1.9972184 -0.17870216 8
-0.68220359 3.6313 -0.19559701 2
-0.68120289 3.6259735 -0.066176616 1
-0.68667763 3.6551149 0.99554461 2
-0.68904555 3.6677191 0.86136711 1
-0.68878877 3.6663523 0.72348559 1
-0.6875211 3.6596048 0.58949798 3
-0.68723786 3.6580968 0.45665276 1
-0.68242371 3.6324718 0.32178676 2
-0.68407875 3.6412811 0.19289252 1
-0.68490553 3.6456821 0.063291736 1
-0.23845693 1.2916303 -0.35274586 58
-0.2582216 1.3986878 -0.32953578 51
-0.31006628 1.6795107 -0.3327201 15
-0.25103247 1.3597472 -0.21924959 12
-0.22163674 1.2005217 -0.15008254 10
-0.37074482 2.0081832 -0.17957814 9
-0.66897923 3.6236053 -0.19506837 1
-0.66980821 3.6280956 -0.066176616 2
-0.67343765 3.6477547 0.99295878 1
-0.67751968 3.6698656 0.86136711 1
-0.67904949 3.6781518 0.72538948 1
-0.6742276 3.6520338 0.58793432 1
-0.67574221 3.6602378 0.45665276 1
-0.67281729 3.6443944 0.3226541 1
-0.67263597 3.6434124 0.19289252 1
-0.67163372 3.6379836 0.063121133 1
-0.23439798 1.2923729 -0.35274586 62
-0.25208768 1.3899066 -0.3272787 46
-0.30829173 1.6997924 -0.33654448 14
-0.24675947 1.3605291 -0.21924959 17
-0.21786411 1.201212 -0.15008254 9
-0.36443409 2.0093381 -0.17957814 10
-0.65759206 3.625689 -0.19506837 1
-0.65840691 3.630182 -0.066176616 1
-0.66197455 3.6498525 0.99295878 2
-0.66598713 3.6719761 0.86136711 1
-0.6674909 3.6802671 0.72538948 1
-0.66627634 3.6735706 0.59106165 2
-0.66246861 3.6525764 0.45543501 2
-0.65780902 3.6268854 0.32091939 2
-0.65940434 3.6356814 0.19237259 1
-0.66020131 3.6400754 0.063121133 1
-0.23033673 1.293103 -0.35274586 59
-0.24771993 1.3906918 -0.3272787 56
-0.29950756 1.6814258 -0.3327201 13
-0.23901998 1.3418505 -0.21611746 17
-0.21582988 1.2116621 -0.15130273 10
-0.35637286 2.0006659 -0.17870216 9
-0.64794958 3.6375682 -0.19559701 1
-0.64524579 3.6223891 -0.06599728 2
-0.65050495 3.6519141 0.99295878 1
-0.65444803 3.6740501 0.86136711 2
-0.65420413 3.6726811 0.72348559 1
-0.64953595 3.6464739 0.58637071 1
-0.65099049 3.6546395 0.45543501 1
-0.6464116 3.6289341 0.32091939 1
-0.64797926 3.6377349 0.19237259 1
-0.64700907 3.632288 0.062950537 1
-0.22627319 1.2938203 -0.35274586 56
-0.24334973 1.3914632 -0.3272787 52
-0.29253277 1.6726897 -0.33080792 17
-0.23650473 1.3523237 -0.21768352 12
-0.21202227 1.2123342 -0.15130273 9
-0.35008585 2.0017755 -0.17870216 10
-0.63479835 3.6297493 -0.19506837 1
-0.63386256 3.6243982 -0.06599728 2
-0.63902897 3.6539397 0.99295878 2
-0.63954526 3.6568918 0.8568691 1
-0.64435405 3.6843884 0.72538948 3
-0.63977855 3.6582258 0.58793432 2
-0.6412158 3.6664438 0.45665276 1
-0.63672405 3.6407604 0.32178676 2
-0.6365478 3.6397526 0.19237259 1
-0.63559473 3.6343029 0.062950537 1
-0.22220743 1.2945247 -0.35274586 49
-0.23897712 1.3922207 -0.3272787 49
-0.288937 1.6832744 -0.3327201 16
-0.23225512 1.35306 -0.21768352 17
-0.20821258 1.2129942 -0.15130273 9
-0.3421101 1.9930476 -0.17782617 9
-0.62339205 3.6317255 -0.19506837 2
-0.62416452 3.6362259 -0.066176616 2
-0.62591237 3.6464086 0.99037296 1
-0.62970209 3.6684864 0.8591181 1
-0.62945437 3.6670434 0.7215817 1
-0.62494081 3.6407485 0.58480704 1
-0.62801498 3.6586578 0.45543501 2
-0.62528312 3.6427426 0.32178676 1
-0.6234206 3.631892 0.19185267 1
-0.62417406 3.6362815 0.062950537 1
-0.21653549 1.2856928 -0.35015213 60
-0.23622011 1.4025713 -0.32953578 57
-0.28201726 1.6744946 -0.33080792 15
-0.23292415 1.3830013 -0.22238173 14
-0.20440082 1.2136424 -0.15130273 11
-0.3375015 2.0039358 -0.17870216 10
-0.6119796 3.633666 -0.19506837 1
-0.61107737 3.6283092 -0.06599728 1
-0.61605811 3.6578827 0.99295878 2
-0.61817408 3.6704464 0.8591181 1
-0.61793095 3.6690028 0.7215817 1
-0.61678076 3.6621735 0.58793432 3
-0.61486948 3.6508248 0.45421728 1
-0.61218154 3.634865 0.32091939 2
-0.61366618 3.6436803 0.19237259 2
-0.61274731 3.6382246 0.062950537 1
-0.21249531 1.2863667 -0.35015213 59
-0.22863713 1.3840832 -0.32502159 53
-0.27835503 1.6850566 -0.3327201 15
-0.22213936 1.344748 -0.21611746 19
-0.20058705 1.2142785 -0.15130273 11
-0.3312043 2.004986 -0.17870216 10
-0.59893352 3.6257184 -0.19453973 1
-0.59804618 3.6203465 -0.065817937 2
-0.60298914 3.6502693 0.99037296 1
-0.60505193 3.6627569 0.8568691 1
-0.60800141 3.6806118 0.72348559 1
-0.60205317 3.6446033 0.58480704 1
-0.60339701 3.6527386 0.45421728 2
-0.60075927 3.6367705 0.32091939 1
-0.60058862 3.6357374 0.19185267 1
-0.59968489 3.6302667 0.062779941 1
-0.20999713 1.2965615 -0.35274586 61
-0.22428778 1.3847946 -0.32502159 48
-0.2714906 1.6762335 -0.33080792 15
-0.22422995 1.3844376 -0.22238173 11
-0.19835816 1.2247003 -0.15252291 13
-0.32331115 1.9961833 -0.17782617 11
-0.58754009 3.6275821 -0.19453973 1
-0.58666956 3.6222074 -0.065817937 1
-0.58997405 3.6426098 0.98778713 1
-0.59509993 3.674258 0.8591181 2
-0.59486586 3.6728129 0.7215817 1
-0.59060037 3.6464767 0.58480704 1
-0.59191865 3.6546161 0.45421728 1
-0.58773828 3.6288056 0.32005206 2
-0.58756697 3.6277483 0.19133274 1
-0.5898757 3.6420028 0.062950537 2
-0.20440869 1.2876765 -0.35015213 61
-0.22146355 1.3951138 -0.3272787 61
-0.26622322 1.6770782 -0.33080792 16
-0.21987951 1.3851352 -0.22238173 27
-0.1929536 1.2155149 -0.15130273 13
-0.31703836 1.9971892 -0.17782617 12
-0.57614082 3.6294098 -0.19453973 1
-0.57528722 3.6240327 -0.065817937 1
-0.57852757 3.6444454 0.98778713 1
-0.58202636 3.666486 0.8568691 2
-0.5848636 3.6843593 0.72348559 3
-0.58069021 3.6580689 0.58637071 2
-0.58043444 3.6564577 0.45421728 1
-0.57789701 3.6404734 0.32091939 1
-0.57773286 3.6394391 0.19185267 1
-0.57529604 3.624088 0.062609345 1
-0.20036234 1.2883122 -0.35015213 59
-0.21558249 1.3861765 -0.32502159 70
-0.26095322 1.6779063 -0.33080792 18
-0.21400911 1.3760598 -0.22081566 15
-0.189134 1.216115 -0.15130273 13
-0.30923161 1.988332 -0.17695017 13
-0.56320125 3.6213346 -0.19401109 1
-0.56389916 3.6258221 -0.065817937 1
-0.56707537 3.646245 0.98778713 2
-0.56900752 3.6586685 0.8546201 1
-0.57026869 3.6667776 0.71967781 1
-0.56615949 3.6403558 0.58324337 1
-0.56894451 3.6582632 0.45421728 2
-0.56492633 3.632427 0.32005206 2
-0.56476176 3.6313684 0.19133274 1
-0.56544435 3.6357574 0.062779941 2
-0.19485982 1.2793877 -0.34755844 56
-0.21122663 1.3868469 -0.32502159 58
-0.2527248 1.6593107 -0.32698354 20
-0.21117216 1.3864894 -0.22238173 16
-0.18531254 1.2167032 -0.15130273 13
-0.30298355 1.9892937 -0.17695017 15
-0.55332536 3.6329582 -0.19453973 1
-0.55250555 3.6275756 -0.065817937 2
-0.55561757 3.6480083 0.98778713 1
-0.55897784 3.6700706 0.8568691 2
-0.55874634 3.668551 0.71967781 1
-0.55472022 3.6421165 0.58324337 1
-0.5559544 3.6502199 0.45299953 1
-0.55351198 3.6341836 0.32005206 1
-0.55485433 3.6429973 0.19185267 1
-0.55251402 3.6276312 0.062609345 1
-0.19203866 1.2895793 -0.35015213 58
-0.20806143 1.3971754 -0.3272787 63
-0.24432947 1.6407228 -0.32315919 25
-0.21093747 1.4164886 -0.22707993 16
-0.18127678 1.217311 -0.15130273 13
-0.29491791 1.9804347 -0.17607418 16
-0.5398041 3.624896 -0.19401109 1
-0.53900033 3.6194987 -0.065638594 1
-0.54351729 3.6498308 0.98778713 1
-0.54536921 3.6622667 0.8546201 1
-0.54657793 3.6703837 0.71967781 1
-0.54409426 3.6537054 0.58480704 3
-0.54384679 3.6520436 0.45299953 1
-0.53999019 3.6261456 0.31918469 2
-0.54129976 3.6349397 0.19133274 1
-0.54048127 3.6294434 0.062609345 2
-0.18659389 1.2806194 -0.34755844 58
-0.20226642 1.388182 -0.32502159 62
-0.24058901 1.6511952 -0.32507136 35
-0.20791045 1.4269178 -0.228646 17
-0.17888267 1.2276961 -0.15252291 14
-0.29013103 1.9912088 -0.17695017 15
-0.52697372 3.6166923 -0.19348244 1
-0.52762669 3.6211741 -0.065638594 1
-0.53065556 3.6419613 0.9852013 1
-0.53386116 3.6639619 0.8546201 2
-0.53504443 3.6720827 0.71967781 1
-0.53118902 3.6456227 0.58324337 1
-0.53093982 3.6439123 0.45178178 1
-0.52859569 3.6278241 0.31918469 1
-0.53131747 3.6465044 0.19185267 1
-0.5276348 3.6212294 0.062438745 1
-0.18415754 1.2907283 -0.35015213 60
-0.19952273 1.3984203 -0.3272787 54
-0.23846157 1.6713359 -0.32889572 28
-0.20367579 1.4275284 -0.228646 50
-0.17523924 1.2282214 -0.15252291 15
-0.28281468 1.9821992 -0.17607418 15
-0.51624048 3.6182399 -0.19348244 1
-0.51688015 3.6227236 -0.065638594 2
-0.51984733 3.6435199 0.9852013 1
-0.5229876 3.6655297 0.8546201 1
-0.5241468 3.6736541 0.71967781 1
-0.52176505 3.6569607 0.58480704 3
-0.52012575 3.6454716 0.45178178 2
-0.51782936 3.6293764 0.31918469 2
-0.51767468 3.6282921 0.19081281 1
-0.51688808 3.6227791 0.062438745 1
-0.18032706 1.2912689 -0.35015213 56
-0.19537267 1.3990061 -0.3272787 56
-0.23485915 1.6817572 -0.33080792 18
-0.19943933 1.4281263 -0.228646 29
-0.17159426 1.228736 -0.15252291 15
-0.27830991 1.9928955 -0.17695017 16
-0.5068838 3.6296458 -0.19401109 1
-0.50612909 3.6242414 -0.065638594 2
-0.50903451 3.6450462 0.9852013 1
-0.51076186 3.6574152 0.8523711 2
-0.51188678 3.6654704 0.71777385 1
-0.5081802 3.6389287 0.5816797 1
-0.50930715 3.6469986 0.45178178 1
-0.50705856 3.630897 0.31918469 1
-0.50828826 3.6397026 0.19133274 1
-0.50613683 3.6242967 0.062438745 1
-0.173436 1.2727212 -0.34496471 65
-0.19073232 1.3996463 -0.3272787 56
-0.23060627 1.6922524 -0.3327201 25
-0.1947024 1.4287798 -0.228646 13
-0.16885884 1.2391326 -0.15374309 16
-0.27035466 1.983937 -0.17607418 18
-0.4948447 3.6313066 -0.19401109 1
-0.49275786 3.615993 -0.065459259 1
-0.49694431 3.6467142 0.9852013 2
-0.49863061 3.6590889 0.8523711 1
-0.4997288 3.6671476 0.71777385 1
-0.49877751 3.660167 0.58480704 2
-0.49721047 3.6486676 0.45178178 2
-0.49501526 3.6325586 0.31918469 2
-0.49351895 3.621578 0.19029289 1
-0.4927654 3.6160483 0.062268145 1
-0.17071074 1.2828332 -0.34755844 65
-0.18761933 1.4098954 -0.32953578 63
-0.22528878 1.6929685 -0.3327201 16
-0.19281846 1.4489651 -0.23177814 16
-0.16496515 1.239657 -0.15374309 19
-0.26280659 1.9749022 -0.1751982 24
-0.48211691 3.6229446 -0.19348244 1
-0.48271435 3.6274343 -0.065638594 1
-0.48548537 3.6482575 0.9852013 1
-0.48713279 3.6606371 0.8523711 2
-0.48950064 3.6784308 0.71967781 2
-0.48467058 3.6421344 0.5816797 1
-0.48574543 3.6502116 0.45178178 2
-0.48360083 3.6340957 0.31918469 1
-0.48477364 3.642909 0.19133274 1
-0.48272175 3.6274896 0.062438745 1
-0.16667977 1.2833631 -0.34755844 62
-0.18193437 1.4008172 -0.3272787 63
-0.21870486 1.6839342 -0.33080792 18
-0.18444927 1.4201807 -0.22707993 22
-0.16234818 1.2500118 -0.15496327 18
-0.25403497 1.9559608 -0.17344621 22
-0.47073275 3.6244414 -0.19348244 1
-0.47002831 3.6190176 -0.065459259 1
-0.47277752 3.6401851 0.98261547 1
-0.47563019 3.6621497 0.8523711 1
-0.47667772 3.6702151 0.71777385 1
-0.47577032 3.6632285 0.58480704 3
-0.47299719 3.6418767 0.45056406 1
-0.47089851 3.6257176 0.31831735 2
-0.47075433 3.6246073 0.19029289 1
-0.47003552 3.6190729 0.062268145 1
-0.16021958 1.2647181 -0.34237099 65
-0.17630832 1.3917171 -0.32502159 68
-0.20971274 1.6554 -0.32507136 22
-0.18495189 1.4599463 -0.23334421 13
-0.16091517 1.2702088 -0.15740363 22
-15.023568 118.59086 -10.511891 -1
-0.45808887 3.6159954 -0.19295381 1
-0.45991313 3.6303954 -0.065638594 2
-0.46133921 3.6416526 0.98261547 1
-0.46412286 3.6636257 0.8523711 2
-0.46514505 3.6716945 0.71777385 1
-0.46177694 3.6451077 0.5816797 1
-0.46155357 3.6433446 0.45056406 2
-0.45950568 3.6271791 0.31831735 1
-0.45936498 3.6260684 0.19029289 1
-0.45866355 3.6205318 0.062268145 1
-0.15742925 1.2748002 -0.34496471 63
-0.17312925 1.4019326 -0.3272787 61
-0.20451112 1.6560507 -0.32507136 20
-0.17915392 1.450718 -0.23177814 26
-0.15814038 1.2805585 -0.15862383 20
-14.65093 118.63747 -10.511891 -1
-0.44795057 3.6273274 -0.19348244 1
-0.44728023 3.6218994 -0.065459259 1
-0.44989637 3.6430838 0.98261547 2
-0.45022252 3.645725 0.84787309 1
-0.45360783 3.6731377 0.71777385 1
-0.45153379 3.656343 0.58324337 3
-0.45010543 3.6447766 0.45056406 2
-0.44932932 3.6384921 0.31918469 2
-0.44674712 3.6175826 0.18977296 1
-0.44728708 3.6219549 0.062268145 1
-0.15457714 1.2848771 -0.34755844 76
-0.1687241 1.4024695 -0.3272787 72
-0.19930749 1.656685 -0.32507136 19
-0.17341578 1.4414678 -0.23021208 30
-0.15293109 1.2711948 -0.15740363 20
-0.14159164 1.1769389 -0.10424293 19
-0.43536001 3.6188023 -0.19295381 2
-0.43589953 3.6232867 -0.065459259 2
-0.43844908 3.6444793 0.98261547 1
-0.4399308 3.6567955 0.85012209 2
-0.4408935 3.6647978 0.71586996 1
-0.43768534 3.6381309 0.58011609 1
-0.43865281 3.6461728 0.45056406 2
-0.43670651 3.6299946 0.31831735 1
-0.43537998 3.6189682 0.18977296 1
-0.43471193 3.6134152 0.062097549 1
-0.15031548 1.2853826 -0.34755844 71
-0.16294089 1.3933454 -0.32502159 98
-0.19381262 1.6573368 -0.32507136 20
-0.16748758 1.4322251 -0.228646 19
-0.14986764 1.281553 -0.15862383 21
-0.13653095 1.1675079 -0.10336693 16
-0.42335725 3.6202261 -0.19295381 1
-0.42388186 3.6247122 -0.065459259 2
-0.42523915 3.6363187 0.98002964 1
-0.42667025 3.6485565 0.84787309 1
-0.42873818 3.6662397 0.71586996 1
-0.42676568 3.6493726 0.5816797 3
-0.42771211 3.6574657 0.45178178 1
-0.42466661 3.631423 0.31831735 2
-0.42337665 3.6203921 0.18977296 1
-0.42272702 3.6148369 0.062097549 1
-0.14191014 1.2474649 -0.33718354 87
-0.15856276 1.3938503 -0.32502159 73
-0.188605 1.6579375 -0.32507136 25
-0.16745269 1.4719975 -0.23491028 17
-0.14696264 1.2918792 -0.15984401 19
-0.1339884 1.1778288 -0.10424293 21
-0.41198191 3.6215384 -0.19295381 2
-0.41136232 3.6160917 -0.065279916 1
-0.41490507 3.6472347 0.98261547 1
-0.41630721 3.6595602 0.85012209 2
-0.41610864 3.6578145 0.71396607 1
-0.41306597 3.6310678 0.57855242 1
-0.41509789 3.6489294 0.45056406 2
-0.41213006 3.6228406 0.31745002 1
-0.41087201 3.6117818 0.18925305 1
-0.41023847 3.6062126 0.06192695 1
-0.13905187 1.2575039 -0.33977726 89
-0.14990021 1.3556099 -0.31599322 58
-0.18339552 1.6585219 -0.32507136 22
-0.16391297 1.4823331 -0.23647635 28
-0.14399423 1.3021997 -0.16106419 18
-0.13138233 1.188145 -0.10511892 17
-0.40060249 3.6228147 -0.19295381 1
-0.40000001 3.6173663 -0.065279916 2
-0.40238324 3.6389186 0.98002964 1
-0.40373743 3.6511652 0.84787309 1
-0.40569419 3.6688612 0.71586996 1
-0.40382773 3.6519818 0.5816797 3
-0.40254149 3.6403501 0.4493463 1
-0.40184149 3.6340194 0.31831735 2
-0.39842567 3.6031287 0.18873312 1
-0.40000612 3.6174216 0.062097549 1
-0.13406932 1.2483319 -0.33718354 89
-0.14460042 1.3463879 -0.31373614 109
-0.17713608 1.6493305 -0.32315919 19
-0.15714595 1.4632004 -0.23334421 40
-0.14096242 1.3125142 -0.16228437 18
-0.12764902 1.1885519 -0.10511892 19
-0.38815278 3.6141264 -0.19242516 2
-0.38863376 3.6186051 -0.065279916 2
-0.39094928 3.6401649 0.98002964 1
-0.39330545 3.6621037 0.85012209 2
-0.39311785 3.6603568 0.71396607 1
-0.39024329 3.6335914 0.57855242 1
-0.39110303 3.6415966 0.4493463 2
-0.38935909 3.6253586 0.31745002 1
-0.38817054 3.6142921 0.18925305 1
-0.38863972 3.6186604 0.062097549 1
-0.13114806 1.2583528 -0.33977726 75
-0.13835019 1.3274566 -0.30922195 75
-0.17195369 1.6498789 -0.32315919 24
-0.1525484 1.4636869 -0.23334421 17
-0.1378672 1.3228223 -0.16350456 17
-0.12391446 1.1889471 -0.10511892 18
-0.37783191 3.6252604 -0.19295381 1
-0.37726367 3.6198082 -0.065279916 2
-0.37851009 3.6317673 0.97744381 1
-0.38078865 3.6536298 0.84787309 1
-0.38263422 3.6713378 0.71586996 1
-0.38087383 3.6544471 0.5816797 3
-0.37966073 3.6428075 0.4493463 2
-0.37796777 3.626564 0.31745002 2
-0.37681401 3.6154938 0.18925305 1
-0.37519655 3.5999742 0.061756354 1
-0.12622324 1.2491497 -0.33718354 61
-0.1351586 1.3375772 -0.31147903 69
-0.16874321 1.6699424 -0.32698354 20
-0.14794934 1.464159 -0.23334421 24
-0.13371076 1.3232489 -0.16350456 14
-0.12017866 1.1893306 -0.10511892 18
-0.36644098 3.6264293 -0.19295381 2
-0.36488467 3.6110277 -0.065100573 1
-0.36709872 3.6329384 0.97744381 1
-0.37028816 3.6645026 0.85012209 1
-0.37109849 3.6725218 0.71586996 1
-0.36740521 3.6359718 0.57855242 1
-0.36821464 3.6439822 0.4493463 1
-0.36657274 3.6277335 0.31745002 1
-0.36545378 3.6166596 0.18925305 1
-0.36489028 3.611083 0.06192695 1
-0.12323906 1.2591519 -0.33977726 101
-0.13190478 1.3476909 -0.31373614 66
-0.16636446 1.6997707 -0.3327201 17
-0.14527297 1.4842758 -0.23647635 21
-0.13051981 1.3335406 -0.16472474 13
-0.11547134 1.179788 -0.10424293 13
-0.35504642 3.6275628 -0.19295381 1
-0.35548639 3.6320579 -0.065459259 2
-0.35568371 3.6340737 0.97744381 1
-0.35782486 3.6559503 0.84787309 1
-0.36051539 3.68344 0.71777385 3
-0.35598066 3.6371081 0.57855242 2
-0.35676494 3.6451209 0.4493463 1
-0.35517409 3.6288671 0.31745002 2
-0.35311714 3.6078508 0.18873312 1
-0.35354394 3.6122115 0.06192695 1
-0.12019327 1.2691476 -0.34237099 80
-0.12767023 1.3480986 -0.31373614 99
-0.1628745 1.7198284 -0.33654448 14
-0.14433402 1.5240554 -0.24274062 17
-0.12632973 1.333944 -0.16472474 11
-0.11176436 1.180145 -0.10424293 15
-0.34270686 3.6187186 -0.19242516 2
-0.34313154 3.6232028 -0.065279916 1
-0.34426519 3.6351733 0.97744381 1
-0.34633759 3.6570563 0.84787309 1
-0.34616503 3.6552343 0.71206212 1
-0.3436214 3.6283755 0.57698876 1
-0.34437591 3.6363423 0.44812858 1
-0.34377193 3.6299651 0.31745002 1
-0.34178102 3.6089425 0.18873312 1
-0.34219411 3.6133044 0.06192695 1
-0.11620553 1.269519 -0.34237099 83
-0.12343443 1.3484931 -0.31373614 95
-0.15657599 1.710557 -0.33463228 21
-0.16205268 1.7703886 -0.28189233 9
-0.12304313 1.3442183 -0.16594492 12
-0.10805628 1.1804903 -0.10424293 11
-0.33133665 3.6197774 -0.19242516 2
-0.33083585 3.6143062 -0.065100573 2
-0.33372381 3.6458566 0.98002964 1
-0.33484691 3.6581264 0.84787309 2
-0.33736467 3.6856322 0.71777385 3
-0.33402151 3.6491089 0.58011609 2
-0.33295032 3.6374063 0.44812858 1
-0.3314583 3.6211064 0.31658265 2
-0.33044153 3.6099985 0.18873312 1
-0.33084092 3.6143615 0.06192695 1
-0.11136653 1.2602575 -0.33977726 92
-0.11919741 1.3488742 -0.31373614 83
-0.14947334 1.6914856 -0.33080792 23
-0.15475127 1.7512124 -0.27876019 38
-0.12144057 1.3742584 -0.16960548 11
-0.105224 1.1907468 -0.10511892 14
-0.31996316 3.6208005 -0.19242516 3
-0.31947955 3.6153278 -0.065100573 1
-0.32141808 3.6372647 0.97744381 1
-0.32249525 3.6494544 0.84562415 1
-0.32319185 3.6573372 0.71206212 1
-0.32081702 3.6304629 0.57698876 1
-0.32152143 3.6384344 0.44812858 2
-0.32008064 3.6221297 0.31658265 1
-0.31821972 3.6010709 0.18821318 1
-0.31948444 3.6153831 0.06192695 1
-0.10904656 1.2798469 -0.34496471 104
-0.11495923 1.349242 -0.31373614 87
-0.14582522 1.711507 -0.33463228 26
-0.15427978 1.8107356 -0.2881566 15
-0.11628001 1.3647437 -0.16838528 11
-0.10063696 1.1811459 -0.10424293 14
-0.30858654 3.6217878 -0.19242516 2
-0.3081201 3.6163137 -0.065100573 2
-0.30998969 3.6382565 0.97744381 1
-0.31185579 3.6601582 0.84787309 2
-0.31336725 3.6778977 0.71586996 2
-0.31108704 3.6511354 0.58011609 2
-0.31008941 3.6394265 0.44812858 1
-0.30869982 3.6231174 0.31658265 2
-0.30690506 3.6020529 0.18821318 1
-0.30727598 3.6064065 0.061756354 1
-0.10502528 1.2801832 -0.34496471 100
-0.1107199 1.3495965 -0.31373614 110
-0.1396451 1.7021741 -0.3327201 21
-0.14859043 1.8112113 -0.2881566 47
-0.11280351 1.3749943 -0.16960548 9
-0.097740293 1.1913844 -0.10511892 13
-0.29639035 3.6127868 -0.19189653 3
-0.29757515 3.6272287 -0.065279916 3
-0.29855826 3.6392124 0.97744381 1
-0.29955885 3.6514084 0.84562415 1
-0.29940319 3.6495113 0.71015823 1
-0.29799995 3.6324069 0.57698876 1
-0.29946584 3.650275 0.4493463 1
-0.29731596 3.6240695 0.31658265 1
-0.29558739 3.6029992 0.18821318 1
-0.29594463 3.6073539 0.061756354 1
-0.10100295 1.2805068 -0.34496471 109
-0.10801155 1.3693613 -0.31825033 105
-0.1350687 1.7123895 -0.33463228 26
-0.14289962 1.8116692 -0.2881566 19
-0.10926374 1.3852365 -0.17082566 10
-0.094780281 1.2016163 -0.10599491 10
-0.28503898 3.6137002 -0.19189653 3
-0.28539219 3.6181781 -0.065100573 2
-0.28712389 3.6401324 0.97744381 1
-0.28885233 3.6620452 0.84787309 1
-0.28870842 3.6602206 0.71206212 1
-0.28736362 3.6431715 0.57855242 3
-0.28721625 3.6413031 0.44812858 1
-0.28592914 3.6249855 0.31658265 2
-0.28426677 3.6039102 0.18821318 1
-0.28461036 3.6082659 0.061756354 1
-0.095521286 1.2615575 -0.33977726 126
-0.102238 1.3502655 -0.31373614 115
-0.13042949 1.7225928 -0.33654448 17
-0.13944447 1.8416545 -0.29285482 20
-0.10566073 1.3954698 -0.17204584 9
-0.089500614 1.1820419 -0.10424293 10
-0.27293089 3.6046202 -0.19136789 4
-0.27326909 3.609087 -0.064921238 3
-0.27495736 3.6313841 0.97485799 1
-0.27734625 3.6629345 0.84787309 2
-0.27720809 3.6611094 0.71206212 1
-0.27517113 3.6342075 0.57698876 1
-0.27577534 3.6421874 0.44812858 2
-0.27453953 3.6258659 0.31658265 1
-0.27369738 3.6147435 0.18873312 1
-0.27402818 3.6191123 0.06192695 1
-0.090640061 1.2522347 -0.33718354 134
-0.097759798 1.3505971 -0.31373614 110
-0.12471645 1.7230159 -0.33654448 19
-0.13048445 1.8027034 -0.28659055 19
-0.10174914 1.4057119 -0.17326602 8
-0.087018654 1.2022033 -0.10599491 11
-0.26097602 3.6055055 -0.19136789 6
-0.26129943 3.6099734 -0.064921238 2
-0.26361111 3.6419106 0.97744381 2
-0.26449457 3.6541159 0.84562415 1
-0.26506588 3.6620088 0.71206212 1
-0.26383123 3.6449513 0.57855242 2
-0.26297933 3.633182 0.44691083 2
-0.26179501 3.6168201 0.31571531 2
-0.260988 3.6056707 0.18821318 1
-0.26130342 3.6100287 0.061756354 1
-0.085371673 1.2332438 -0.33199611 134
-0.09351629 1.3508976 -0.31373614 128
-0.11862497 1.7136071 -0.33463228 23
-0.12413837 1.7932514 -0.28502446 15
-0.098703355 1.4258277 -0.17570639 8
-0.083241403 1.2024708 -0.10599491 9
-0.2489581 3.5963454 -0.19083925 7
-0.24995708 3.6107764 -0.064921238 4
-0.25150132 3.6330841 0.97485799 1
-0.25368646 3.6646492 0.84787309 1
-0.25356004 3.6628234 0.71206212 1
-0.25169688 3.6359088 0.57698876 1
-0.25156409 3.6339903 0.44691083 1
-0.25043115 3.6176248 0.31571531 1
-0.2489695 3.5965102 0.18769327 1
-0.24996091 3.6108317 0.061756354 1
-0.084904075 1.281675 -0.34496471 147
-0.089507692 1.3511691 -0.31373614 131
-0.11094487 1.6747755 -0.32698354 19
-0.12077567 1.8231769 -0.28972268 15
-0.093160294 1.4063072 -0.17326602 8
-0.079673238 1.2027124 -0.10599491 12
-0.23828644 3.5970683 -0.19083925 6
-0.23858172 3.6015258 -0.064741895 3
-0.24135917 3.6434529 0.97744381 2
-0.24152398 3.6459408 0.84337515 1
-0.24204223 3.653764 0.71015823 1
-0.2415607 3.6464949 0.57855242 2
-0.24143679 3.6446247 0.44812858 1
-0.23969635 3.6183517 0.31571531 2
-0.23895746 3.6071978 0.18821318 1
-0.23858537 3.6015809 0.061585754 1
-0.081710681 1.2915597 -0.34755844 124
-0.084268115 1.3319837 -0.30922195 134
-0.1053555 1.6653014 -0.32507136 19
-0.11411848 1.8038135 -0.28659055 27
-0.090240635 1.4263884 -0.17570639 7
-0.076104373 1.2029436 -0.10599491 11
-0.22761269 3.5977595 -0.19083925 7
-0.22915731 3.6221745 -0.065100573 4
-0.22993787 3.6345124 0.97485799 1
-0.23070522 3.6466415 0.84337515 1
-0.23120023 3.6544659 0.71015823 1
-0.23011665 3.6373384 0.57698876 1
-0.23062193 3.6453249 0.44812858 1
-0.22895946 3.6190469 0.31571531 1
-0.22825365 3.6078908 0.18821318 1
-0.22789823 3.6022727 0.061585754 1
-0.076849453 1.2821831 -0.34496471 94
-0.078684933 1.3128068 -0.30470774 129
-0.10159433 1.6950353 -0.33080792 22
-0.10754528 1.794323 -0.28502446 20
-0.085510068 1.4266798 -0.17570639 8
-0.072114848 1.2031894 -0.10599491 9
-0.21568084 3.5984945 -0.19083925 7
-0.2159481 3.6029537 -0.064741895 3
-0.21788414 3.6352549 0.97485799 1
-0.21919422 3.6571128 0.84562415 1
-0.21966767 3.6650121 0.71206212 3
-0.21805355 3.6380816 0.57698876 2
-0.21853232 3.6460698 0.44812858 2
-0.216957 3.6197865 0.31571531 2
-0.21569072 3.5986593 0.18769327 1
-0.21595141 3.6030087 0.061585754 1
-0.072273456 1.272776 -0.34237099 76
-0.074007951 1.3033214 -0.30245066 89
-0.095155798 1.6757468 -0.32698354 31
-0.10246766 1.8045127 -0.28659055 23
-0.081590295 1.4368508 -0.17692657 8
-0.068899319 1.2133554 -0.1068709 9
-0.20380865 3.5891843 -0.19031061 7
-0.20519489 3.6135967 -0.064921238 6
-0.20646259 3.6359215 0.97485799 1
-0.20770399 3.6577833 0.84562415 2
-0.20759606 3.6558828 0.71015823 1
-0.20606317 3.6288874 0.57542509 1
-0.20651409 3.6368287 0.44691083 2
-0.20501927 3.6105039 0.31484795 1
-0.20438415 3.5993192 0.18769327 1
-0.20519802 3.613652 0.061756354 2
-0.069309026 1.2922846 -0.34755844 72
-0.070434824 1.3132753 -0.30470774 73
-0.088313788 1.6466333 -0.32124698 25
-0.096269168 1.7949634 -0.28502446 27
-0.07760746 1.447011 -0.17814675 7
-0.065620616 1.2235132 -0.10774689 8
-6.4177303 119.66023 -6.3436871 -1
-0.19330597 3.6042395 -0.064741895 4
-0.195039 3.6365521 0.97485799 2
-0.19621173 3.6584177 0.84562415 1
-0.19558401 3.646714 0.70825434 1
-0.19571961 3.6492424 0.57855242 3
-0.19508766 3.6374595 0.44691083 2
-0.19420908 3.621078 0.31571531 2
-0.1936104 3.6099157 0.18821318 1
-0.19330892 3.6042945 0.061585754 1
-0.064274997 1.2732049 -0.34237099 76
-0.066308707 1.3134902 -0.30470774 62
-0.082150549 1.6272966 -0.31742263 34
-0.089633726 1.7755288 -0.28189233 21
-0.073561586 1.4571604 -0.17936693 7
-0.062278766 1.2336622 -0.10862288 10
-6.0417757 119.6798 -6.3436871 -1
-0.18248609 3.6148145 -0.064921238 5
-0.18312645 3.6274993 0.97227216 1
-0.18520878 3.6687477 0.84787309 1
-0.18462153 3.657115 0.71015823 1
-0.18325827 3.6301105 0.57542509 1
-0.18315887 3.6281414 0.44569308 1
-0.18232991 3.6117208 0.31484795 1
-0.18226859 3.6105061 0.18821318 1
-0.18248887 3.6148698 0.061756354 1
-0.060507488 1.2830582 -0.34496471 75
-0.062411562 1.3234339 -0.30696484 125
-0.07675378 1.62756 -0.31742263 25
-0.083280116 1.7659507 -0.28032628 57
-0.068729065 1.4573963 -0.17936693 6
-0.05912596 1.253763 -0.11037486 7
-0.095021978 2.0149362 -0.10678539 11
-0.17002694 3.6054125 -0.064741895 10
-0.17155127 3.6377358 0.97485799 2
-0.17212376 3.6498756 0.84337515 1
-0.17295554 3.6675134 0.71206212 3
-0.17168465 3.6405642 0.57698876 2
-0.17159407 3.6386435 0.44691083 1
-0.17082129 3.6222568 0.31571531 2
-0.16982429 3.6011152 0.18769327 1
-0.17002954 3.6054676 0.061585754 1
-0.056476347 1.2832419 -0.34496471 67
-0.058253568 1.3236234 -0.30696484 72
-0.070345581 1.5983752 -0.31168607 28
-0.077297561 1.7563365 -0.27876019 47
-0.06458658 1.4675206 -0.18058713 7
-0.05518686 1.2539425 -0.11037486 8
-0.088252343 2.0052483 -0.10625675 10
-0.15913899 3.6159177 -0.064921238 12
-0.15969743 3.6286063 0.97227216 1
-0.16065651 3.6503983 0.84337515 1
-0.16100124 3.658231 0.71015823 1
-0.15981238 3.6312182 0.57542509 1
-0.16016211 3.6391647 0.44691083 2
-0.15944082 3.6227756 0.31571531 1
-0.15851022 3.6016309 0.18769327 1
-0.15870181 3.605984 0.061585754 1
-0.051656011 1.2641135 -0.33977726 86
-0.054095004 1.3238 -0.30696484 71
-0.0653238 1.5985883 -0.31168607 24
-0.071779497 1.7565707 -0.27876019 21
-0.059975918 1.4677163 -0.18058713 8
-0.05124722 1.2541097 -0.11037486 9
-0.08235997 2.0154934 -0.10678539 9
-0.14737025 3.6064095 -0.064741895 8
-0.14869146 3.638742 0.97485799 1
-0.14918767 3.6508851 0.84337515 2
-0.14910696 3.6489098 0.70825434 1
-0.14880708 3.641571 0.57698876 2
-0.14872856 3.6396499 0.44691083 1
-0.14805876 3.6232586 0.31571531 2
-0.14760235 3.6120894 0.18821318 1
-0.14737251 3.6064649 0.061585754 1
-0.047684435 1.2642696 -0.33977726 80
-0.049568728 1.3142283 -0.30470774 91
-0.060301367 1.5987856 -0.31168607 20
-0.066260718 1.7567875 -0.27876019 22
-0.056112833 1.487734 -0.18302749 12
-0.04730707 1.2542645 -0.11037486 10
-0.07565134 2.0057633 -0.10625675 8
-0.13603967 3.6068549 -0.064741895 12
-0.1372593 3.6391912 0.97485799 1
-0.13771737 3.6513357 0.84337515 1
-0.13764286 3.6493602 0.70825434 1
-0.13699377 3.6321507 0.57542509 1
-0.13691945 3.6301806 0.44569308 2
-0.13629976 3.6137505 0.31484795 1
-0.13663031 3.6225145 0.18873312 2
-0.13641861 3.6169014 0.061756354 1
-0.043712385 1.2644131 -0.33977726 77
-0.045439716 1.3143775 -0.30470774 87
-0.054939214 1.5891576 -0.30977389 28
-0.059376322 1.7175041 -0.27249593 19
-0.052810408 1.5275803 -0.18790822 13
-0.04439899 1.2842737 -0.11300284 13
-0.069349684 2.005991 -0.10625675 9
-0.12470776 3.6072645 -0.064741895 6
-0.12549204 3.6299503 0.97227216 1
-0.12658234 3.6614883 0.84562415 2
-0.12685576 3.6693971 0.71206212 2
-0.12592362 3.6424344 0.57698876 2
-0.12551425 3.6305928 0.44569308 1
-0.12529038 3.6241174 0.31571531 3
-0.12455912 3.6029649 0.18769327 1
-0.12470967 3.6073196 0.061585754 1
-0.040043261 1.2741972 -0.34237099 74
-0.041310262 1.3145138 -0.30470774 72
-0.049329843 1.5697011 -0.30594951 23
-0.053980336 1.7176822 -0.27249593 37
-0.049258165 1.5674202 -0.19278896 14
-0.041302815 1.3142768 -0.11563081 11
-0.063047342 2.0061991 -0.10625675 9
-0.11306055 3.5976448 -0.064562552 9
-0.11408761 3.6303265 0.97227216 1
-0.11446671 3.64239 0.84112614 1
-0.11471068 3.6501532 0.70825434 1
-0.11385949 3.6230676 0.57386142 1
-0.1141078 3.630969 0.44569308 2
-0.11359136 3.6145356 0.31484795 1
-0.11323947 3.6033385 0.18769327 1
-0.11337634 3.6076937 0.061585754 1
-0.036040064 1.2743168 -0.34237099 65
-0.037455808 1.3243752 -0.30696484 65
-0.043843269 1.5502251 -0.30212516 23
-0.046908516 1.6586074 -0.26309952 48
-0.044894919 1.5874099 -0.19522932 15
-0.038018551 1.3442729 -0.11825878 11
-0.056744382 2.0063872 -0.10625675 9
-0.10204034 3.6079767 -0.064741895 7
-0.10268205 3.630667 0.97227216 1
-0.10302326 3.6427314 0.84112614 1
-0.1029653 3.6406822 0.70635039 1
-0.1030352 3.6431534 0.57698876 2
-0.10270023 3.6313097 0.44569308 1
-0.10223541 3.6148746 0.31484795 2
-0.10191871 3.6036763 0.18769327 1
-0.10204189 3.608032 0.061585754 1
-0.031308405 1.2454596 -0.33458984 56
-0.033294983 1.3244864 -0.30696484 60
-0.038726222 1.540543 -0.30021298 26
-0.040456627 1.6093791 -0.25526917 15
-0.040406559 1.6073873 -0.19766968 13
-0.033544876 1.3344272 -0.11738279 14
-0.050440863 2.0065556 -0.10625675 9
-0.090705052 3.6082795 -0.064741895 10
-0.091032736 3.621315 0.96968633 1
-0.09182366 3.6527779 0.84337515 1
-0.091773979 3.6508017 0.70825434 1
-0.091341197 3.6335855 0.57542509 1
-0.091541082 3.641537 0.44691083 2
-0.090878472 3.6151779 0.31484795 1
-0.090596944 3.6039789 0.18769327 1
-0.090455174 3.5983393 0.061415158 1
-0.026546055 1.2069299 -0.32421494 44
-0.029133828 1.3245844 -0.30696484 59
-0.033670444 1.5308439 -0.29830077 28
-0.03518324 1.599624 -0.25370309 25
-0.035574861 1.6174293 -0.19888987 13
-0.030009637 1.3644035 -0.12001076 13
-0.044136845 2.0067041 -0.10625675 10
-0.079368882 3.6085467 -0.064741895 7
-0.07965561 3.621583 0.96968633 2
-0.08034768 3.6530485 0.84337515 1
-0.080735959 3.6707015 0.71206212 2
-0.080142707 3.643729 0.57698876 2
-0.079882167 3.6318834 0.44569308 2
-0.07973969 3.6254056 0.31571531 1
-0.079274282 3.6042457 0.18769327 1
-0.079370096 3.6086018 0.061585754 1
-0.022026112 1.1683832 -0.31384006 55
